-1.048 -0.836 -5.602 0
-1.069 -0.838 -5.614 0
-1.103 -0.854 -5.702 0
-1.156 -0.885 -5.878 0
-1.209 -0.915 -6.051 0
-1.247 -0.932 -6.142 0
-1.267 -0.933 -6.143 0
-1.272 -0.929 -6.12 0
-1.294 -0.931 -6.126 0
-1.305 -0.924 -6.083 0
-1.244 -0.86 -5.707 0
-1.171 -0.787 -5.281 0
-1.185 -0.785 -5.267 0
-1.351 -0.84 -5.561 0
-1.367 -0.839 -5.551 0
-1.335 -0.804 -5.345 0
-1.396 -0.834 -5.517 0
-1.654 -0.855 -5.571 0
-1.662 -0.854 -5.567 0
-2.155 -0.905 -5.714 0
-2.179 -0.908 -5.724 0
-2.201 -0.91 -5.728 0
-2.235 -0.917 -5.762 0
-2.251 -0.916 -5.751 0
-2.272 -0.922 -5.777 0
-2.298 -0.925 -5.79 0
-2.323 -0.929 -5.801 0
-2.347 -0.931 -5.807 0
-2.382 -0.939 -5.841 0
-2.411 -0.943 -5.859 0
-2.425 -0.946 -5.868 0
-2.458 -0.952 -5.897 0
-2.481 -0.954 -5.9 0
-2.518 -0.962 -5.934 0
-2.559 -0.972 -5.981 0
-2.609 -0.985 -6.045 0
-6.713 -1.484 -6.785 0
-6.704 -1.477 -6.733 0
-6.702 -1.472 -6.69 0
-6.686 -1.465 -6.653 0
-6.686 -1.46 -6.611 0
-6.685 -1.455 -6.568 0
-6.693 -1.452 -6.534 0
-6.69 -1.447 -6.491 0
-6.702 -1.445 -6.462 0
-6.7 -1.439 -6.419 0
-6.696 -1.436 -6.395 0
-6.7 -1.432 -6.358 0
-6.704 -1.429 -6.322 0
-6.71 -1.426 -6.288 0
-6.711 -1.421 -6.249 0
-6.719 -1.419 -6.217 0
-6.714 -1.413 -6.173 0
-6.709 -1.41 -6.15 0
-6.711 -1.406 -6.112 0
-6.714 -1.402 -6.077 0
-6.708 -1.396 -6.033 0
-6.714 -1.393 -6 0
-6.716 -1.39 -5.965 0
-6.722 -1.387 -5.932 0
-6.721 -1.382 -5.894 0
-6.719 -1.38 -5.873 0
-6.716 -1.375 -5.833 0
-6.724 -1.373 -5.803 0
-6.726 -1.369 -5.768 0
-6.73 -1.366 -5.735 0
-6.625 -1.339 -5.609 0
-6.751 -1.363 -5.68 0
-6.74 -1.354 -5.616 0
-6.752 -1.353 -5.59 0
-6.754 -1.35 -5.556 0
-6.762 -1.348 -5.528 0
-6.763 -1.344 -5.493 0
-6.785 -1.345 -5.475 0
-6.78 -1.342 -5.453 0
-6.798 -1.342 -5.433 0
-6.818 -1.343 -5.414 0
-6.841 -1.344 -5.398 0
-6.877 -1.348 -5.391 0
-6.902 -1.35 -5.375 0
-6.945 -1.356 -5.374 0
-6.975 -1.36 -5.38 0
-7.014 -1.365 -5.375 0
-7.032 -1.365 -5.354 0
-7.076 -1.371 -5.352 0
-7.105 -1.374 -5.34 0
-7.147 -1.379 -5.336 0
-7.186 -1.384 -5.33 0
-7.218 -1.389 -5.337 0
-7.262 -1.394 -5.334 0
-7.298 -1.398 -5.325 0
-7.343 -1.404 -5.323 0
-7.382 -1.409 -5.316 0
-7.426 -1.415 -5.312 0
-7.473 -1.421 -5.311 0
-7.505 -1.426 -5.316 0
-7.554 -1.432 -5.315 0
-7.603 -1.439 -5.314 0
-7.659 -1.447 -5.318 0
-7.747 -1.462 -5.343 0
-7.823 -1.474 -5.36 0
-7.843 -1.475 -5.338 0
-7.914 -1.484 -5.332 0
-7.946 -1.487 -5.317 0
-8.005 -1.496 -5.32 0
-8.055 -1.502 -5.317 0
-8.109 -1.51 -5.316 0
-8.169 -1.519 -5.319 0
-8.22 -1.527 -5.334 0
-8.266 -1.533 -5.328 0
-8.318 -1.54 -5.324 0
-8.376 -1.549 -5.324 0
-8.441 -1.558 -5.329 0
-8.481 -1.563 -5.317 0
-8.533 -1.57 -5.312 0
-8.57 -1.576 -5.317 0
-8.652 -1.589 -5.33 0
-8.699 -1.594 -5.322 0
-8.764 -1.604 -5.324 0
-8.83 -1.614 -5.326 0
-8.887 -1.622 -5.323 0
-8.951 -1.631 -5.323 0
-9.012 -1.641 -5.34 0
-9.076 -1.651 -5.34 0
-9.144 -1.661 -5.342 0
-9.208 -1.67 -5.341 0
-9.269 -1.679 -5.337 0
-9.339 -1.689 -5.339 0
-9.407 -1.699 -5.339 0
-9.467 -1.709 -5.353 0
-9.541 -1.72 -5.355 0
-9.609 -1.73 -5.354 0
-9.681 -1.741 -5.355 0
-9.743 -1.749 -5.349 0
-9.939 -1.784 -5.417 0
-9.987 -1.79 -5.403 0
-10.013 -1.793 -5.396 0
-10.037 -1.794 -5.369 0
-10.073 -1.798 -5.347 0
-10.121 -1.804 -5.332 0
-10.16 -1.808 -5.312 0
-10.132 -1.8 -5.257 0
-10.176 -1.805 -5.239 0
-9.979 -1.594 2.091 0
-9.947 -1.59 2.117 0
-9.933 -1.589 2.146 0
-9.837 -1.573 2.158 0
-9.749 -1.559 2.155 0
-9.677 -1.547 2.171 0
-9.643 -1.543 2.196 0
-9.59 -1.535 2.215 0
-9.585 -1.535 2.246 0
-9.566 -1.533 2.273 0
-9.544 -1.53 2.3 0
-9.521 -1.527 2.31 0
-9.508 -1.526 2.339 0
-9.489 -1.524 2.366 0
-9.472 -1.522 2.393 0
-9.451 -1.52 2.419 0
-9.449 -1.521 2.451 0
-9.411 -1.516 2.472 0
-9.414 -1.517 2.489 0
-9.412 -1.518 2.52 0
-9.507 -1.536 2.577 0
-9.512 -1.538 2.611 0
-9.515 -1.54 2.644 0
-9.534 -1.545 2.681 0
-9.537 -1.547 2.714 0
-9.557 -1.551 2.736 0
-9.588 -1.558 2.778 0
-9.61 -1.564 2.817 0
-9.612 -1.566 2.85 0
-9.605 -1.566 2.881 0
-9.566 -1.561 2.902 0
-9.589 -1.566 2.942 0
-9.575 -1.565 2.954 0
-9.496 -1.552 2.962 0
-9.507 -1.556 2.999 0
-9.479 -1.553 3.023 0
-9.411 -1.542 3.034 0
-9.366 -1.536 3.052 0
-9.343 -1.534 3.077 0
8.952 -1.76 -5.722 0
8.845 -1.741 -5.693 0
8.815 -1.739 -5.713 0
8.808 -1.739 -5.728 0
8.795 -1.74 -5.759 0
8.932 -1.774 -5.89 0
7.563 -1.573 -5.865 0
7.492 -1.559 -5.829 0
7.412 -1.55 -5.841 0
7.323 -1.534 -5.808 0
7.268 -1.525 -5.802 0
7.243 -1.524 -5.819 0
7.191 -1.516 -5.815 0
7.164 -1.512 -5.811 0
7.134 -1.509 -5.824 0
7.129 -1.512 -5.857 0
7.145 -1.52 -5.909 0
7.015 -1.494 -5.837 0
6.96 -1.486 -5.829 0
6.971 -1.491 -5.856 0
6.972 -1.495 -5.895 0
6.817 -1.463 -5.8 0
6.778 -1.458 -5.804 0
6.752 -1.457 -5.819 0
4.02 -1.131 -5.823 0
4.003 -1.131 -5.837 0
3.977 -1.129 -5.838 0
3.964 -1.13 -5.859 0
3.947 -1.131 -5.873 0
3.957 -1.14 -5.928 0
3.891 -1.125 -5.87 0
3.925 -1.139 -5.942 0
3.916 -1.142 -5.969 0
3.916 -1.148 -6.009 0
3.912 -1.153 -6.045 0
3.874 -1.146 -6.027 0
3.842 -1.142 -6.019 0
3.827 -1.144 -6.038 0
3.807 -1.14 -6.027 0
3.793 -1.141 -6.046 0
3.768 -1.14 -6.05 0
3.728 -1.132 -6.026 0
3.658 -1.172 -6.329 0
3.681 -1.184 -6.393 0
3.645 -1.178 -6.376 0
3.657 -1.19 -6.445 0
3.66 -1.206 -6.546 0
3.628 -1.209 -6.586 0
3.612 -1.207 -6.581 0
3.624 -1.219 -6.653 0
3.606 -1.22 -6.67 0
3.61 -1.23 -6.728 0
3.62 -1.242 -6.799 0
3.614 -1.248 -6.84 0
3.624 -1.26 -6.91 0
3.645 -1.272 -6.977 0
1.538 -0.952 -5.874 0
1.516 -0.943 -5.826 0
1.482 -0.932 -5.768 0
1.444 -0.917 -5.693 0
1.427 -0.917 -5.699 0
1.405 -0.915 -5.688 0
1.383 -0.911 -5.673 0
1.323 -0.9 -5.621 0
1.302 -0.897 -5.609 0
0.628 -0.857 -5.5 0
0.611 -0.858 -5.508 0
0.603 -0.86 -5.517 0
0.584 -0.856 -5.499 0
0.566 -0.855 -5.493 0
0.549 -0.856 -5.501 0
0.533 -0.859 -5.52 0
0.5 -0.862 -5.541 0
0.489 -0.856 -5.509 0
0.471 -0.855 -5.5 0
0.422 -0.822 -5.319 0
0.417 -0.85 -5.479 0
0.402 -0.855 -5.51 0
0.383 -0.851 -5.487 0
0.341 -0.854 -5.506 0
0.324 -0.854 -5.509 0
0.306 -0.853 -5.502 0
0.288 -0.849 -5.483 0
0.27 -0.848 -5.474 0
0.254 -0.853 -5.505 0
0.244 -0.848 -5.476 0
0.227 -0.848 -5.48 0
0.21 -0.85 -5.493 0
0.193 -0.848 -5.482 0
0.175 -0.849 -5.484 0
0.158 -0.847 -5.477 0
0.141 -0.846 -5.469 0
0.132 -0.848 -5.483 0
0.115 -0.849 -5.488 0
0.098 -0.851 -5.498 0
0.081 -0.852 -5.506 0
0.063 -0.85 -5.492 0
0.046 -0.851 -5.502 0
0.038 -0.85 -5.495 0
0.02 -0.849 -5.487 0
0.003 -0.85 -5.497 0
-0.014 -0.849 -5.487 0
-0.031 -0.85 -5.495 0
-0.049 -0.85 -5.497 0
-0.066 -0.849 -5.487 0
-0.083 -0.85 -5.496 0
-0.092 -0.85 -5.494 0
-0.109 -0.847 -5.478 0
-0.127 -0.852 -5.503 0
-0.144 -0.851 -5.497 0
-0.161 -0.849 -5.487 0
-0.178 -0.849 -5.488 0
-0.195 -0.849 -5.483 0
-0.204 -0.849 -5.487 0
-0.221 -0.848 -5.479 0
-0.238 -0.848 -5.478 0
-0.255 -0.849 -5.483 0
-0.273 -0.851 -5.492 0
-0.29 -0.848 -5.477 0
-0.308 -0.851 -5.49 0
-0.316 -0.85 -5.484 0
-0.332 -0.847 -5.469 0
-0.349 -0.847 -5.464 0
-0.367 -0.849 -5.479 0
-0.384 -0.848 -5.471 0
-0.403 -0.851 -5.488 0
-0.419 -0.85 -5.477 0
-0.425 -0.844 -5.445 0
-0.445 -0.85 -5.475 0
-0.462 -0.849 -5.471 0
-0.653 -0.853 -5.472 0
-0.671 -0.853 -5.472 0
-1.749 -0.921 -5.627 0
-1.756 -0.915 -5.59 0
-1.777 -0.916 -5.593 0
-6.704 -1.568 -6.79 0
-6.701 -1.562 -6.745 0
-6.69 -1.554 -6.692 0
-6.689 -1.549 -6.649 0
-6.675 -1.543 -6.615 0
-6.681 -1.539 -6.579 0
-6.704 -1.539 -6.561 0
-6.585 -1.505 -6.404 0
-6.669 -1.521 -6.445 0
-6.66 -1.514 -6.396 0
-6.663 -1.509 -6.359 0
-6.653 -1.505 -6.33 0
-6.659 -1.501 -6.295 0
-6.665 -1.498 -6.262 0
-6.656 -1.491 -6.215 0
-6.651 -1.485 -6.171 0
-6.654 -1.481 -6.135 0
-6.656 -1.477 -6.099 0
-6.65 -1.473 -6.073 0
-6.648 -1.468 -6.034 0
-6.658 -1.466 -6.005 0
-6.663 -1.463 -5.971 0
-6.664 -1.458 -5.935 0
-6.67 -1.456 -5.903 0
-6.674 -1.452 -5.869 0
-6.671 -1.449 -5.848 0
-6.675 -1.446 -5.815 0
-6.689 -1.445 -5.79 0
-6.692 -1.441 -5.756 0
-6.698 -1.438 -5.725 0
-6.71 -1.437 -5.698 0
-6.716 -1.434 -5.667 0
-6.717 -1.433 -5.65 0
-6.726 -1.43 -5.622 0
-6.742 -1.43 -5.599 0
-6.746 -1.427 -5.567 0
-6.754 -1.425 -5.538 0
-6.762 -1.423 -5.509 0
-6.776 -1.422 -5.486 0
-6.782 -1.421 -5.473 0
-6.794 -1.42 -5.448 0
-6.807 -1.419 -5.423 0
-6.842 -1.423 -5.416 0
-6.862 -1.424 -5.397 0
-6.901 -1.429 -5.392 0
-6.927 -1.431 -5.378 0
-6.945 -1.433 -5.374 0
-6.982 -1.438 -5.368 0
-7.018 -1.442 -5.36 0
-7.054 -1.446 -5.352 0
-7.088 -1.45 -5.343 0
-7.128 -1.455 -5.338 0
-7.169 -1.46 -5.333 0
-7.187 -1.463 -5.329 0
-7.235 -1.47 -5.33 0
-7.274 -1.474 -5.323 0
-7.321 -1.481 -5.322 0
-7.355 -1.485 -5.312 0
-7.404 -1.492 -5.312 0
-7.316 -1.469 -5.214 0
-7.532 -1.514 -5.349 0
-7.615 -1.529 -5.372 0
-7.659 -1.535 -5.367 0
-7.708 -1.542 -5.365 0
-7.842 -1.567 -5.422 0
-7.992 -1.595 -5.488 0
-7.987 -1.59 -5.447 0
-7.984 -1.588 -5.427 0
-7.975 -1.582 -5.384 0
-8.004 -1.581 -5.331 0
-8.05 -1.588 -5.325 0
-8.104 -1.596 -5.325 0
-8.161 -1.604 -5.325 0
-8.211 -1.613 -5.339 0
-8.264 -1.621 -5.336 0
-8.324 -1.63 -5.338 0
-8.375 -1.637 -5.334 0
-8.44 -1.647 -5.338 0
-8.501 -1.656 -5.338 0
-8.557 -1.665 -5.337 0
-8.606 -1.673 -5.348 0
-8.67 -1.683 -5.35 0
-8.73 -1.692 -5.349 0
-8.784 -1.7 -5.344 0
-8.857 -1.711 -5.35 0
-8.919 -1.72 -5.349 0
-8.985 -1.731 -5.35 0
-9.041 -1.74 -5.364 0
-9.103 -1.75 -5.363 0
-9.176 -1.761 -5.367 0
-9.255 -1.774 -5.373 0
-9.324 -1.785 -5.375 0
-9.396 -1.796 -5.377 0
-9.449 -1.803 -5.367 0
-9.505 -1.811 -5.36 0
-9.558 -1.82 -5.37 0
-9.613 -1.828 -5.361 0
-9.695 -1.841 -5.367 0
-9.781 -1.855 -5.374 0
-9.963 -1.889 -5.432 0
-10.002 -1.893 -5.413 0
-10.029 -1.895 -5.387 0
-10.057 -1.899 -5.382 0
-10.079 -1.9 -5.353 0
-10.134 -1.908 -5.341 0
-10.158 -1.909 -5.313 0
-10.029 -1.88 -5.206 0
-10.188 -1.908 -5.247 0
-9.997 -1.688 2.12 0
-9.975 -1.686 2.148 0
-9.972 -1.686 2.18 0
-9.968 -1.686 2.196 0
-9.971 -1.688 2.229 0
-9.864 -1.67 2.238 0
-9.843 -1.667 2.266 0
-9.838 -1.668 2.297 0
-9.85 -1.671 2.332 0
-3.4 -0.677 2.978 0
-3.379 -0.674 2.979 0
-3.375 -0.676 2.994 0
-3.366 -0.675 2.996 0
-3.364 -0.676 3.013 0
-3.347 -0.675 3.017 0
-3.351 -0.678 3.039 0
-3.334 -0.676 3.043 0
-3.335 -0.678 3.063 0
-3.326 -0.679 3.075 0
-3.324 -0.679 3.083 0
-3.313 -0.679 3.092 0
-3.305 -0.679 3.104 0
-3.299 -0.681 3.118 0
-3.297 -0.682 3.135 0
-3.287 -0.682 3.146 0
-3.293 -0.686 3.171 0
-3.283 -0.685 3.172 0
8.979 -1.84 -5.697 0
8.967 -1.84 -5.709 0
8.962 -1.843 -5.745 0
8.931 -1.84 -5.765 0
8.913 -1.84 -5.793 0
8.919 -1.845 -5.837 0
8.863 -1.837 -5.84 0
9.009 -1.873 -5.976 0
7.505 -1.637 -5.88 0
7.421 -1.62 -5.834 0
7.294 -1.598 -5.808 0
7.283 -1.6 -5.837 0
7.269 -1.601 -5.864 0
7.274 -1.607 -5.905 0
7.182 -1.589 -5.869 0
7.109 -1.574 -5.828 0
7.086 -1.573 -5.846 0
6.928 -1.544 -5.79 0
7.012 -1.569 -5.898 0
7.003 -1.571 -5.927 0
6.856 -1.54 -5.841 0
6.778 -1.525 -5.812 0
6.766 -1.525 -5.82 0
6.748 -1.525 -5.841 0
4.702 -1.261 -5.842 0
4.721 -1.269 -5.884 0
4.712 -1.272 -5.911 0
4.697 -1.273 -5.931 0
4.665 -1.269 -5.928 0
4.648 -1.27 -5.945 0
4.65 -1.276 -5.986 0
3.976 -1.173 -5.786 0
3.952 -1.18 -5.848 0
3.908 -1.171 -5.823 0
3.941 -1.188 -5.912 0
3.885 -1.176 -5.869 0
3.903 -1.188 -5.935 0
3.914 -1.198 -5.993 0
3.909 -1.203 -6.025 0
3.896 -1.201 -6.027 0
3.877 -1.201 -6.039 0
3.847 -1.198 -6.034 0
3.831 -1.199 -6.051 0
3.802 -1.202 -6.089 0
3.715 -1.178 -5.992 0
3.735 -1.188 -6.045 0
3.786 -1.252 -6.416 0
3.7 -1.228 -6.316 0
3.664 -1.229 -6.346 0
3.626 -1.223 -6.325 0
3.634 -1.233 -6.386 0
3.632 -1.24 -6.428 0
3.64 -1.247 -6.466 0
3.642 -1.255 -6.517 0
3.624 -1.256 -6.533 0
3.63 -1.266 -6.593 0
3.625 -1.272 -6.632 0
3.632 -1.283 -6.695 0
3.633 -1.291 -6.746 0
3.636 -1.301 -6.802 0
3.631 -1.303 -6.818 0
3.631 -1.311 -6.87 0
3.646 -1.326 -6.951 0
3.64 -1.332 -6.993 0
1.517 -0.977 -5.763 0
1.486 -0.967 -5.718 0
1.466 -0.966 -5.715 0
1.446 -0.965 -5.714 0
1.394 -0.952 -5.656 0
1.379 -0.947 -5.635 0
1.36 -0.947 -5.636 0
1.011 -0.918 -5.553 0
1.005 -0.921 -5.568 0
0.567 -0.909 -5.566 0
0.546 -0.902 -5.531 0
0.386 -0.893 -5.493 0
0.376 -0.913 -5.602 0
0.35 -0.891 -5.483 0
0.292 -0.897 -5.522 0
0.275 -0.897 -5.523 0
0.257 -0.894 -5.506 0
0.222 -0.895 -5.512 0
0.205 -0.895 -5.512 0
0.187 -0.893 -5.503 0
0.178 -0.893 -5.504 0
0.162 -0.896 -5.522 0
0.127 -0.895 -5.517 0
0.109 -0.891 -5.496 0
0.092 -0.896 -5.521 0
0.075 -0.895 -5.516 0
0.066 -0.894 -5.514 0
0.049 -0.894 -5.512 0
0.031 -0.891 -5.497 0
0.014 -0.892 -5.501 0
-0.003 -0.893 -5.504 0
-0.02 -0.893 -5.504 0
-0.038 -0.892 -5.5 0
-0.047 -0.897 -5.53 0
-0.064 -0.893 -5.508 0
-0.081 -0.893 -5.504 0
-0.098 -0.892 -5.502 0
-0.115 -0.891 -5.495 0
-0.133 -0.891 -5.495 0
-0.15 -0.893 -5.502 0
-0.159 -0.892 -5.498 0
-0.176 -0.893 -5.502 0
-0.194 -0.894 -5.511 0
-0.21 -0.891 -5.495 0
-0.228 -0.892 -5.496 0
-0.246 -0.894 -5.507 0
-0.262 -0.892 -5.494 0
-0.271 -0.89 -5.484 0
-0.288 -0.893 -5.497 0
-0.305 -0.892 -5.492 0
-0.324 -0.895 -5.509 0
-0.341 -0.894 -5.504 0
-0.358 -0.893 -5.497 0
-0.375 -0.893 -5.494 0
-0.385 -0.897 -5.513 0
-0.401 -0.895 -5.502 0
-0.418 -0.894 -5.496 0
-0.436 -0.894 -5.497 0
-0.453 -0.893 -5.49 0
-0.471 -0.896 -5.504 0
-0.661 -0.897 -5.486 0
-0.679 -0.897 -5.486 0
-6.69 -1.632 -6.751 0
-6.681 -1.624 -6.7 0
-6.678 -1.618 -6.655 0
-6.676 -1.611 -6.61 0
-6.657 -1.601 -6.551 0
-6.659 -1.597 -6.512 0
-6.649 -1.591 -6.481 0
-6.636 -1.583 -6.428 0
-6.645 -1.58 -6.396 0
-6.638 -1.573 -6.349 0
-6.636 -1.567 -6.307 0
-6.631 -1.561 -6.263 0
-6.635 -1.557 -6.227 0
-6.622 -1.551 -6.195 0
-6.626 -1.547 -6.16 0
-6.622 -1.541 -6.117 0
-6.632 -1.539 -6.089 0
-6.631 -1.534 -6.049 0
-6.633 -1.53 -6.012 0
-6.633 -1.525 -5.974 0
-6.63 -1.522 -5.953 0
-6.62 -1.515 -5.906 0
-6.628 -1.512 -5.876 0
-6.627 -1.508 -5.838 0
-6.647 -1.508 -5.819 0
-6.659 -1.506 -5.793 0
-6.661 -1.502 -5.758 0
-6.657 -1.499 -5.736 0
-6.657 -1.495 -5.699 0
-6.646 -1.488 -5.654 0
-6.658 -1.486 -5.628 0
-6.664 -1.484 -5.597 0
-6.674 -1.482 -5.57 0
-6.675 -1.478 -5.535 0
-6.676 -1.476 -5.518 0
-6.687 -1.474 -5.492 0
-6.701 -1.474 -5.468 0
-6.717 -1.473 -5.446 0
-6.726 -1.472 -5.419 0
-6.749 -1.473 -5.402 0
-6.779 -1.476 -5.391 0
-6.789 -1.476 -5.382 0
-6.819 -1.48 -5.371 0
-6.861 -1.485 -5.369 0
-6.889 -1.488 -5.356 0
-6.926 -1.493 -5.35 0
-6.963 -1.497 -5.344 0
-6.998 -1.502 -5.337 0
-7.035 -1.508 -5.347 0
-7.084 -1.516 -5.35 0
-7.115 -1.519 -5.338 0
-7.148 -1.523 -5.328 0
-7.194 -1.53 -5.328 0
-7.232 -1.534 -5.32 0
-7.272 -1.54 -5.315 0
-7.312 -1.547 -5.327 0
-7.357 -1.554 -5.325 0
-7.39 -1.557 -5.313 0
-7.451 -1.568 -5.322 0
-7.522 -1.58 -5.337 0
-7.587 -1.591 -5.348 0
-7.627 -1.596 -5.34 0
-7.667 -1.603 -5.35 0
-7.716 -1.61 -5.349 0
-7.762 -1.617 -5.345 0
-7.934 -1.652 -5.427 0
-7.981 -1.658 -5.422 0
-7.981 -1.655 -5.386 0
-8.005 -1.654 -5.347 0
-8.066 -1.664 -5.352 0
-8.115 -1.671 -5.348 0
-8.165 -1.679 -5.344 0
-8.226 -1.689 -5.347 0
-8.281 -1.697 -5.346 0
-8.336 -1.705 -5.345 0
-8.391 -1.714 -5.343 0
-8.434 -1.721 -5.352 0
-8.497 -1.731 -5.355 0
-8.559 -1.741 -5.356 0
-8.607 -1.748 -5.349 0
-8.679 -1.76 -5.356 0
-8.744 -1.771 -5.359 0
-8.807 -1.78 -5.359 0
-8.847 -1.787 -5.365 0
-8.897 -1.795 -5.358 0
-8.955 -1.803 -5.354 0
-9.015 -1.813 -5.352 0
-9.083 -1.824 -5.354 0
-9.147 -1.834 -5.353 0
-9.218 -1.846 -5.356 0
-9.261 -1.853 -5.361 0
-9.325 -1.863 -5.36 0
-9.4 -1.875 -5.364 0
-9.468 -1.886 -5.363 0
-9.565 -1.903 -5.379 0
-9.656 -1.919 -5.39 0
-9.698 -1.924 -5.374 0
-9.855 -1.956 -5.441 0
-9.96 -1.974 -5.459 0
-10.022 -1.984 -5.452 0
-10.03 -1.982 -5.416 0
-10.066 -1.986 -5.394 0
-10.079 -1.985 -5.361 0
-10.103 -1.988 -5.353 0
-10.143 -1.993 -5.334 0
-10.133 -1.988 -5.288 0
-10.251 -2.009 -5.309 0
-3.376 -0.698 2.903 0
-3.367 -0.698 2.913 0
-3.341 -0.694 2.91 0
-3.349 -0.698 2.934 0
-3.341 -0.697 2.937 0
-3.338 -0.699 2.953 0
-3.327 -0.698 2.962 0
-3.322 -0.7 2.976 0
-3.31 -0.699 2.984 0
-3.303 -0.7 2.997 0
-3.346 -0.721 3.122 0
-3.293 -0.71 3.092 0
-3.276 -0.708 3.096 0
-3.263 -0.708 3.104 0
-3.257 -0.707 3.107 0
-3.249 -0.708 3.119 0
-3.239 -0.708 3.129 0
-3.233 -0.709 3.143 0
-3.219 -0.708 3.149 0
-3.215 -0.709 3.165 0
-3.205 -0.709 3.175 0
8.777 -1.906 -5.743 0
7.255 -1.679 -5.843 0
7.219 -1.675 -5.852 0
7.216 -1.679 -5.887 0
7.174 -1.67 -5.871 0
7.101 -1.657 -5.848 0
7.058 -1.65 -5.851 0
7.007 -1.642 -5.845 0
6.966 -1.636 -5.848 0
6.905 -1.626 -5.834 0
6.845 -1.615 -5.82 0
6.806 -1.608 -5.805 0
6.761 -1.601 -5.803 0
6.721 -1.595 -5.805 0
6.703 -1.595 -5.826 0
6.662 -1.589 -5.828 0
4.708 -1.32 -5.786 0
4.728 -1.329 -5.83 0
4.734 -1.336 -5.876 0
4.738 -1.343 -5.918 0
4.723 -1.344 -5.938 0
4.704 -1.344 -5.953 0
4.671 -1.34 -5.949 0
4.576 -1.313 -5.846 0
4.522 -1.301 -5.814 0
4.489 -1.297 -5.809 0
4.462 -1.294 -5.812 0
4.441 -1.293 -5.822 0
4.418 -1.292 -5.829 0
4.4 -1.292 -5.845 0
4.403 -1.296 -5.867 0
4.383 -1.295 -5.88 0
3.903 -1.22 -5.744 0
3.912 -1.23 -5.797 0
3.877 -1.23 -5.823 0
3.857 -1.229 -5.832 0
3.844 -1.228 -5.833 0
3.825 -1.228 -5.844 0
3.811 -1.229 -5.862 0
3.791 -1.229 -5.873 0
3.778 -1.231 -5.893 0
3.758 -1.23 -5.903 0
3.754 -1.236 -5.938 0
3.737 -1.236 -5.951 0
3.63 -1.283 -6.298 0
3.611 -1.287 -6.334 0
3.616 -1.297 -6.389 0
3.598 -1.298 -6.404 0
3.588 -1.302 -6.434 0
3.581 -1.307 -6.47 0
3.585 -1.317 -6.526 0
3.592 -1.324 -6.562 0
3.583 -1.329 -6.596 0
3.597 -1.343 -6.673 0
3.588 -1.348 -6.707 0
3.583 -1.355 -6.748 0
3.578 -1.362 -6.79 0
3.576 -1.37 -6.838 0
3.56 -1.368 -6.835 0
3.624 -1.404 -7.012 0
3.514 -1.366 -6.85 0
1.494 -1.043 -5.844 0
1.481 -1.048 -5.871 0
1.389 -1.003 -5.654 0
1.374 -1.004 -5.665 0
0.993 -0.969 -5.559 0
0.956 -0.966 -5.552 0
-0.133 -0.942 -5.506 0
-0.151 -0.943 -5.509 0
-0.168 -0.943 -5.513 0
-0.186 -0.943 -5.512 0
-0.203 -0.943 -5.512 0
-0.211 -0.943 -5.507 0
-0.229 -0.943 -5.511 0
-0.246 -0.942 -5.504 0
-0.263 -0.941 -5.495 0
-0.28 -0.94 -5.493 0
-0.298 -0.943 -5.503 0
-0.315 -0.943 -5.504 0
-0.324 -0.942 -5.5 0
-0.341 -0.943 -5.501 0
-0.358 -0.941 -5.49 0
-0.375 -0.941 -5.489 0
-0.392 -0.942 -5.492 0
-0.411 -0.945 -5.506 0
-0.426 -0.939 -5.477 0
-0.435 -0.941 -5.484 0
-0.453 -0.942 -5.491 0
-0.471 -0.944 -5.497 0
-0.487 -0.942 -5.486 0
-0.503 -0.939 -5.471 0
-0.522 -0.942 -5.481 0
-0.538 -0.94 -5.471 0
-0.55 -0.946 -5.5 0
-0.636 -0.945 -5.487 0
-0.656 -0.95 -5.51 0
-0.664 -0.949 -5.503 0
-2.349 -1.039 -5.53 0
-2.385 -1.048 -5.568 0
-2.422 -1.057 -5.604 0
-2.454 -1.065 -5.63 0
-2.464 -1.065 -5.628 0
-2.508 -1.078 -5.679 0
-2.566 -1.096 -5.759 0
-2.597 -1.102 -5.78 0
-2.63 -1.11 -5.805 0
-2.673 -1.121 -5.851 0
-6.761 -1.711 -6.642 0
-6.731 -1.697 -6.571 0
-6.72 -1.688 -6.519 0
-6.724 -1.684 -6.483 0
-6.731 -1.68 -6.448 0
-6.718 -1.674 -6.416 0
-6.728 -1.671 -6.385 0
-6.724 -1.665 -6.341 0
-6.719 -1.658 -6.297 0
-6.66 -1.638 -6.203 0
-6.694 -1.641 -6.195 0
-6.717 -1.642 -6.178 0
-6.702 -1.636 -6.145 0
-6.697 -1.63 -6.101 0
-6.704 -1.627 -6.07 0
-6.699 -1.62 -6.027 0
-6.69 -1.613 -5.981 0
-6.691 -1.608 -5.944 0
-6.687 -1.603 -5.904 0
-6.697 -1.6 -5.875 0
-6.651 -1.586 -5.817 0
-6.668 -1.586 -5.794 0
-6.688 -1.586 -5.775 0
-6.694 -1.583 -5.743 0
-6.71 -1.583 -5.721 0
-6.709 -1.578 -5.684 0
-6.708 -1.573 -5.647 0
-6.704 -1.57 -5.626 0
-6.724 -1.571 -5.607 0
-6.712 -1.563 -5.561 0
-6.726 -1.562 -5.537 0
-6.736 -1.56 -5.51 0
-6.748 -1.559 -5.485 0
-6.763 -1.558 -5.461 0
-6.776 -1.56 -5.454 0
-6.794 -1.56 -5.434 0
-6.816 -1.561 -5.417 0
-6.849 -1.565 -5.407 0
-6.862 -1.564 -5.383 0
-6.898 -1.569 -5.376 0
-6.935 -1.574 -5.37 0
-6.948 -1.575 -5.363 0
-7.001 -1.584 -5.368 0
-7.038 -1.589 -5.362 0
-7.053 -1.588 -5.338 0
-7.13 -1.603 -5.361 0
-7.159 -1.606 -5.348 0
-7.179 -1.606 -5.327 0
-7.235 -1.618 -5.351 0
-7.271 -1.622 -5.342 0
-7.3 -1.625 -5.329 0
-7.368 -1.638 -5.342 0
-7.396 -1.64 -5.327 0
-7.47 -1.654 -5.345 0
-7.548 -1.668 -5.364 0
-7.609 -1.681 -5.39 0
-7.686 -1.695 -5.408 0
-7.719 -1.699 -5.395 0
-7.784 -1.71 -5.404 0
-7.825 -1.716 -5.396 0
-7.873 -1.723 -5.392 0
-7.908 -1.727 -5.38 0
-7.976 -1.741 -5.408 0
-8.068 -1.759 -5.433 0
-8.056 -1.752 -5.388 0
-8.098 -1.758 -5.379 0
-8.151 -1.766 -5.377 0
-8.209 -1.776 -5.378 0
-8.263 -1.784 -5.377 0
-8.316 -1.793 -5.375 0
-8.355 -1.799 -5.38 0
-8.398 -1.806 -5.371 0
-8.453 -1.814 -5.369 0
-8.503 -1.822 -5.363 0
-8.565 -1.832 -5.364 0
-8.624 -1.842 -5.363 0
-8.682 -1.851 -5.362 0
-8.741 -1.863 -5.379 0
-8.813 -1.875 -5.385 0
-8.924 -1.896 -5.414 0
-3.451 -0.745 2.87 0
-3.442 -0.745 2.881 0
-3.428 -0.743 2.888 0
-3.412 -0.742 2.893 0
-3.408 -0.743 2.908 0
-3.427 -0.75 2.944 0
-3.286 -0.762 3.192 0
-3.278 -0.762 3.194 0
-3.259 -0.759 3.196 0
-3.253 -0.761 3.211 0
-3.26 -0.765 3.238 0
-3.232 -0.76 3.23 0
7.321 -1.799 -5.848 0
7.215 -1.774 -5.783 0
7.178 -1.769 -5.791 0
7.172 -1.772 -5.823 0
7.154 -1.772 -5.845 0
7.155 -1.778 -5.884 0
7.14 -1.778 -5.909 0
6.976 -1.74 -5.811 0
6.943 -1.733 -5.802 0
7.02 -1.759 -5.903 0
6.773 -1.707 -5.807 0
6.734 -1.702 -5.81 0
6.717 -1.7 -5.814 0
6.714 -1.704 -5.848 0
6.7 -1.705 -5.873 0
6.59 -1.68 -5.814 0
6.555 -1.675 -5.82 0
6.498 -1.665 -5.806 0
6.468 -1.661 -5.816 0
6.438 -1.656 -5.807 0
6.391 -1.648 -5.801 0
5.354 -1.485 -5.727 0
4.764 -1.403 -5.714 0
4.774 -1.409 -5.744 0
4.794 -1.421 -5.805 0
4.78 -1.423 -5.826 0
4.784 -1.43 -5.868 0
4.661 -1.396 -5.754 0
4.634 -1.393 -5.758 0
4.618 -1.394 -5.775 0
4.576 -1.383 -5.741 0
4.546 -1.379 -5.74 0
4.514 -1.375 -5.738 0
4.492 -1.373 -5.746 0
4.482 -1.376 -5.771 0
4.423 -1.362 -5.732 0
4.408 -1.363 -5.751 0
4.356 -1.352 -5.719 0
4.356 -1.355 -5.739 0
4.313 -1.346 -5.72 0
4.292 -1.345 -5.728 0
4.288 -1.35 -5.761 0
4.272 -1.351 -5.777 0
4.25 -1.35 -5.786 0
4.252 -1.353 -5.807 0
3.886 -1.304 -5.771 0
3.87 -1.305 -5.787 0
3.861 -1.305 -5.793 0
3.843 -1.305 -5.805 0
3.816 -1.302 -5.804 0
3.81 -1.306 -5.834 0
3.79 -1.306 -5.844 0
3.773 -1.306 -5.858 0
3.765 -1.31 -5.886 0
3.807 -1.33 -5.971 0
3.766 -1.321 -5.948 0
3.749 -1.322 -5.964 0
3.731 -1.322 -5.975 0
3.713 -1.322 -5.989 0
3.692 -1.322 -5.997 0
3.689 -1.324 -6.013 0
3.678 -1.327 -6.038 0
3.662 -1.328 -6.054 0
3.629 -1.35 -6.195 0
3.606 -1.348 -6.201 0
3.591 -1.358 -6.264 0
3.57 -1.374 -6.366 0
3.579 -1.382 -6.404 0
3.58 -1.391 -6.455 0
3.573 -1.397 -6.49 0
3.569 -1.404 -6.53 0
3.552 -1.405 -6.548 0
3.572 -1.422 -6.633 0
3.559 -1.426 -6.658 0
3.563 -1.437 -6.716 0
3.578 -1.448 -6.77 0
3.587 -1.461 -6.839 0
3.62 -1.485 -6.954 0
3.514 -1.448 -6.804 0
0.873 -1.024 -5.526 0
0.672 -1.009 -5.481 0
0.656 -1.011 -5.493 0
0.637 -1.008 -5.479 0
0.629 -1.01 -5.488 0
0.614 -1.013 -5.505 0
0.592 -1.005 -5.47 0
0.576 -1.007 -5.48 0
0.559 -1.008 -5.486 0
0.541 -1.007 -5.482 0
0.523 -1.005 -5.475 0
0.514 -1.004 -5.472 0
0.498 -1.006 -5.484 0
0.48 -1.004 -5.474 0
0.462 -1.004 -5.475 0
0.445 -1.003 -5.475 0
0.428 -1.003 -5.476 0
0.411 -1.005 -5.485 0
0.402 -1.003 -5.478 0
0.385 -1.003 -5.479 0
0.368 -1.004 -5.484 0
0.349 -0.999 -5.462 0
0.334 -1.006 -5.494 0
0.316 -1.005 -5.489 0
0.299 -1.003 -5.484 0
0.281 -1.001 -5.476 0
0.272 -1.001 -5.476 0
0.256 -1.007 -5.502 0
0.239 -1.007 -5.505 0
0.143 -1.003 -5.487 0
0.126 -0.999 -5.47 0
0.091 -0.999 -5.47 0
0.048 -1 -5.475 0
0.014 -1.002 -5.485 0
-0.003 -0.997 -5.461 0
-0.02 -0.997 -5.463 0
-0.037 -0.997 -5.459 0
-0.055 -0.998 -5.465 0
-0.063 -0.997 -5.459 0
-0.08 -0.995 -5.453 0
-0.097 -0.995 -5.453 0
-0.115 -0.997 -5.46 0
-0.132 -0.998 -5.464 0
-0.149 -0.997 -5.459 0
-0.166 -0.997 -5.461 0
-0.175 -0.997 -5.46 0
-0.192 -0.996 -5.452 0
-0.209 -0.998 -5.461 0
-0.226 -0.997 -5.457 0
-0.244 -0.999 -5.464 0
-0.253 -0.963 -5.289 0
-0.278 -0.997 -5.454 0
-0.286 -0.995 -5.442 0
-0.303 -0.997 -5.455 0
-0.32 -0.997 -5.45 0
-0.338 -0.998 -5.457 0
-0.356 -1.001 -5.467 0
-0.371 -0.996 -5.443 0
-0.389 -0.997 -5.449 0
-0.397 -0.997 -5.445 0
-0.415 -0.999 -5.453 0
-0.431 -0.996 -5.44 0
-0.449 -0.997 -5.443 0
-0.466 -0.998 -5.445 0
-0.483 -0.998 -5.446 0
-0.501 -0.999 -5.446 0
-0.509 -0.998 -5.443 0
-0.527 -1.001 -5.453 0
-0.546 -1.003 -5.465 0
-0.656 -1.05 -5.68 0
-0.768 -1.002 -5.433 0
-1.437 -1.032 -5.443 0
-1.449 -1.035 -5.456 0
-1.464 -1.033 -5.444 0
-1.482 -1.034 -5.443 0
-1.499 -1.034 -5.437 0
-2.395 -1.122 -5.58 0
-2.414 -1.123 -5.576 0
-2.384 -1.099 -5.459 0
-2.46 -1.129 -5.586 0
-2.47 -1.125 -5.562 0
-2.54 -1.152 -5.673 0
-2.574 -1.16 -5.701 0
-2.698 -1.19 -5.805 0
-6.577 -1.719 -6.114 0
-6.654 -1.73 -6.109 0
-6.67 -1.729 -6.085 0
-6.665 -1.722 -6.042 0
-6.669 -1.718 -6.008 0
-6.796 -1.748 -6.084 0
-6.777 -1.741 -6.048 0
-6.753 -1.728 -5.988 0
-6.701 -1.709 -5.904 0
-6.69 -1.701 -5.857 0
-6.683 -1.694 -5.814 0
-6.679 -1.688 -5.774 0
-6.692 -1.687 -5.748 0
-6.702 -1.687 -5.738 0
-6.68 -1.676 -5.683 0
-6.704 -1.678 -5.667 0
-6.698 -1.671 -5.626 0
-6.706 -1.669 -5.597 0
-6.715 -1.667 -5.568 0
-6.72 -1.663 -5.537 0
-6.721 -1.661 -5.521 0
-6.725 -1.658 -5.488 0
-6.741 -1.657 -5.466 0
-6.755 -1.656 -5.442 0
-6.779 -1.658 -5.427 0
-6.806 -1.661 -5.413 0
-6.833 -1.664 -5.4 0
-6.859 -1.668 -5.403 0
-6.885 -1.671 -5.389 0
-6.92 -1.675 -5.381 0
-6.963 -1.682 -5.38 0
-6.991 -1.685 -5.366 0
-7.033 -1.691 -5.364 0
-7.081 -1.7 -5.365 0
-7.089 -1.7 -5.354 0
-7.142 -1.709 -5.359 0
-7.174 -1.713 -5.348 0
-7.221 -1.72 -5.348 0
-7.261 -1.726 -5.343 0
-7.305 -1.733 -5.34 0
-7.363 -1.744 -5.347 0
-7.391 -1.747 -5.332 0
-7.544 -1.775 -5.353 0
-7.553 -1.773 -5.324 0
-7.616 -1.784 -5.333 0
-7.665 -1.792 -5.331 0
-7.822 -1.825 -5.386 0
-7.726 -1.797 -5.284 0
-7.852 -1.825 -5.335 0
-7.976 -1.851 -5.383 0
-7.988 -1.85 -5.354 0
-8.021 -1.854 -5.34 0
-8.095 -1.868 -5.353 0
-3.45 -0.792 2.827 0
-3.441 -0.792 2.838 0
-3.435 -0.792 2.851 0
-3.436 -0.795 2.871 0
-3.254 -0.816 3.223 0
-3.232 -0.813 3.222 0
-3.226 -0.814 3.236 0
-3.234 -0.818 3.254 0
-3.224 -0.818 3.264 0
7.263 -1.881 -5.87 0
7.172 -1.861 -5.833 0
7.153 -1.861 -5.855 0
7.099 -1.851 -5.848 0
7.088 -1.853 -5.876 0
7.032 -1.84 -5.849 0
6.982 -1.831 -5.844 0
6.944 -1.825 -5.85 0
6.895 -1.817 -5.845 0
6.845 -1.808 -5.84 0
6.821 -1.806 -5.856 0
6.785 -1.801 -5.862 0
6.786 -1.804 -5.882 0
6.798 -1.813 -5.93 0
6.793 -1.817 -5.963 0
6.783 -1.819 -5.992 0
6.375 -1.752 -5.979 0
6.236 -1.714 -5.866 0
6.185 -1.705 -5.855 0
6.15 -1.7 -5.858 0
6.096 -1.689 -5.843 0
6.069 -1.687 -5.854 0
6.042 -1.684 -5.865 0
5.985 -1.672 -5.846 0
5.96 -1.668 -5.84 0
5.941 -1.667 -5.857 0
5.881 -1.655 -5.835 0
5.858 -1.653 -5.849 0
5.848 -1.656 -5.876 0
5.239 -1.554 -5.801 0
5.187 -1.543 -5.779 0
5.159 -1.54 -5.784 0
5.129 -1.536 -5.787 0
5.092 -1.53 -5.782 0
5.059 -1.525 -5.781 0
5.037 -1.524 -5.792 0
5.012 -1.519 -5.782 0
4.982 -1.515 -5.783 0
4.954 -1.512 -5.788 0
4.927 -1.509 -5.793 0
4.874 -1.506 -5.823 0
4.845 -1.503 -5.825 0
4.844 -1.509 -5.861 0
4.843 -1.514 -5.897 0
4.759 -1.492 -5.832 0
4.728 -1.488 -5.832 0
4.69 -1.481 -5.822 0
4.676 -1.483 -5.841 0
4.663 -1.481 -5.844 0
4.602 -1.467 -5.805 0
4.576 -1.464 -5.809 0
4.539 -1.457 -5.8 0
4.538 -1.463 -5.836 0
4.651 -1.51 -6.022 0
4.751 -1.552 -6.192 0
4.741 -1.552 -6.2 0
4.717 -1.55 -6.208 0
4.42 -1.451 -5.852 0
4.349 -1.432 -5.796 0
4.316 -1.427 -5.79 0
4.279 -1.42 -5.777 0
4.264 -1.421 -5.795 0
4.25 -1.419 -5.796 0
4.246 -1.424 -5.828 0
4.23 -1.425 -5.844 0
4.231 -1.432 -5.885 0
3.956 -1.391 -5.843 0
3.951 -1.396 -5.876 0
3.913 -1.389 -5.86 0
3.891 -1.387 -5.865 0
3.867 -1.385 -5.869 0
3.851 -1.386 -5.885 0
3.834 -1.387 -5.9 0
3.837 -1.391 -5.924 0
3.813 -1.389 -5.928 0
3.803 -1.401 -5.996 0
3.789 -1.402 -6.015 0
3.773 -1.404 -6.032 0
3.75 -1.402 -6.037 0
3.728 -1.401 -6.044 0
3.717 -1.4 -6.048 0
3.702 -1.402 -6.066 0
3.691 -1.405 -6.091 0
3.679 -1.408 -6.115 0
3.666 -1.411 -6.136 0
3.66 -1.417 -6.171 0
3.64 -1.429 -6.249 0
3.611 -1.425 -6.243 0
3.593 -1.425 -6.258 0
3.592 -1.433 -6.302 0
3.62 -1.468 -6.47 0
3.597 -1.467 -6.476 0
3.585 -1.47 -6.503 0
3.591 -1.482 -6.562 0
3.587 -1.49 -6.604 0
3.502 -1.461 -6.497 0
3.558 -1.496 -6.651 0
3.591 -1.516 -6.74 0
3.608 -1.533 -6.824 0
0.852 -1.088 -5.581 0
0.796 -1.083 -5.562 0
0.786 -1.081 -5.556 0
0.765 -1.076 -5.535 0
0.748 -1.077 -5.541 0
0.729 -1.073 -5.528 0
0.711 -1.073 -5.528 0
0.694 -1.073 -5.53 0
0.677 -1.074 -5.536 0
0.659 -1.072 -5.531 0
0.652 -1.076 -5.549 0
0.634 -1.074 -5.543 0
0.617 -1.075 -5.549 0
0.599 -1.075 -5.549 0
0.582 -1.074 -5.549 0
0.547 -1.075 -5.555 0
0.537 -1.072 -5.546 0
0.52 -1.073 -5.549 0
0.501 -1.068 -5.53 0
0.485 -1.072 -5.549 0
0.468 -1.072 -5.552 0
0.449 -1.07 -5.542 0
0.434 -1.075 -5.567 0
0.424 -1.071 -5.55 0
0.406 -1.071 -5.549 0
0.389 -1.072 -5.558 0
0.371 -1.072 -5.555 0
0.355 -1.074 -5.568 0
0.335 -1.067 -5.538 0
0.318 -1.066 -5.531 0
0.308 -1.061 -5.51 0
0.291 -1.063 -5.521 0
0.274 -1.066 -5.534 0
0.257 -1.07 -5.552 0
0.241 -1.074 -5.572 0
0.219 -1.05 -5.464 0
0.207 -1.082 -5.613 0
0.193 -1.044 -5.437 0
0.179 -1.07 -5.555 0
0.161 -1.067 -5.546 0
0.144 -1.067 -5.545 0
0.126 -1.067 -5.547 0
0.109 -1.067 -5.547 0
0.092 -1.07 -5.561 0
0.083 -1.069 -5.556 0
0.065 -1.066 -5.542 0
0.048 -1.065 -5.538 0
0.03 -1.069 -5.554 0
0.013 -1.069 -5.554 0
-0.004 -1.067 -5.546 0
-0.022 -1.065 -5.537 0
-0.03 -1.067 -5.546 0
-0.048 -1.068 -5.55 0
-0.065 -1.066 -5.542 0
-0.083 -1.064 -5.534 0
-0.1 -1.068 -5.549 0
-0.117 -1.064 -5.533 0
-0.135 -1.065 -5.535 0
-0.144 -1.068 -5.548 0
-0.161 -1.069 -5.554 0
-0.179 -1.067 -5.542 0
-0.196 -1.068 -5.547 0
-0.213 -1.064 -5.531 0
-0.231 -1.066 -5.538 0
-0.248 -1.067 -5.541 0
-0.265 -1.066 -5.536 0
-0.274 -1.066 -5.536 0
-0.292 -1.069 -5.548 0
-0.311 -1.074 -5.569 0
-0.328 -1.071 -5.554 0
-0.344 -1.067 -5.538 0
-0.361 -1.065 -5.527 0
-0.378 -1.066 -5.53 0
-0.387 -1.066 -5.529 0
-0.404 -1.066 -5.528 0
-0.422 -1.065 -5.522 0
-0.439 -1.066 -5.525 0
-0.457 -1.067 -5.526 0
-0.474 -1.067 -5.526 0
-0.482 -1.065 -5.516 0
-0.5 -1.067 -5.522 0
-0.518 -1.067 -5.522 0
-0.535 -1.068 -5.524 0
-0.552 -1.067 -5.519 0
-0.57 -1.067 -5.519 0
-0.588 -1.069 -5.525 0
-0.607 -1.073 -5.541 0
-0.614 -1.07 -5.524 0
-0.629 -1.065 -5.503 0
-0.649 -1.069 -5.518 0
-0.666 -1.07 -5.518 0
-0.683 -1.069 -5.512 0
-0.701 -1.069 -5.512 0
-0.719 -1.071 -5.519 0
-0.727 -1.07 -5.512 0
-0.747 -1.073 -5.525 0
-0.763 -1.072 -5.517 0
-0.783 -1.075 -5.53 0
-0.799 -1.074 -5.52 0
-0.817 -1.075 -5.523 0
-0.832 -1.072 -5.505 0
-0.844 -1.076 -5.525 0
-0.861 -1.075 -5.517 0
-0.879 -1.077 -5.522 0
-0.895 -1.075 -5.511 0
-0.915 -1.078 -5.524 0
-0.934 -1.08 -5.527 0
-0.952 -1.081 -5.53 0
-0.958 -1.077 -5.513 0
-0.979 -1.083 -5.533 0
-0.996 -1.082 -5.528 0
-1.012 -1.08 -5.517 0
-1.029 -1.079 -5.508 0
-1.05 -1.084 -5.526 0
-1.066 -1.083 -5.517 0
-1.078 -1.085 -5.528 0
-1.099 -1.09 -5.546 0
-1.115 -1.088 -5.535 0
-1.17 -1.091 -5.536 0
-1.201 -1.096 -5.555 0
-1.23 -1.09 -5.521 0
-1.249 -1.093 -5.526 0
-1.272 -1.098 -5.545 0
-1.288 -1.096 -5.533 0
-1.315 -1.105 -5.569 0
-1.318 -1.1 -5.546 0
-1.386 -1.098 -5.522 0
-1.414 -1.108 -5.559 0
-1.457 -1.093 -5.477 0
-1.481 -1.098 -5.495 0
-1.499 -1.098 -5.492 0
-1.512 -1.096 -5.474 0
-1.535 -1.1 -5.49 0
-1.559 -1.105 -5.508 0
-1.565 -1.103 -5.496 0
-1.62 -1.132 -5.621 0
-1.626 -1.11 -5.511 0
-1.647 -1.113 -5.519 0
-1.666 -1.114 -5.521 0
-1.688 -1.117 -5.529 0
-1.694 -1.116 -5.519 0
-1.72 -1.122 -5.542 0
-1.726 -1.114 -5.499 0
-1.752 -1.12 -5.521 0
-1.769 -1.119 -5.514 0
-1.793 -1.124 -5.529 0
-1.836 -1.112 -5.457 0
-1.851 -1.111 -5.446 0
-1.868 -1.111 -5.44 0
-1.886 -1.111 -5.436 0
-1.91 -1.116 -5.448 0
-1.914 -1.113 -5.434 0
-1.933 -1.114 -5.432 0
-1.961 -1.121 -5.457 0
-1.97 -1.116 -5.429 0
-1.992 -1.119 -5.435 0
-2.015 -1.123 -5.446 0
-2.033 -1.123 -5.441 0
-2.041 -1.123 -5.438 0
-2.064 -1.127 -5.446 0
-2.08 -1.126 -5.436 0
-2.106 -1.131 -5.453 0
-2.138 -1.14 -5.484 0
-2.151 -1.137 -5.465 0
-2.461 -1.184 -5.573 0
-2.48 -1.185 -5.567 0
-2.496 -1.189 -5.581 0
-2.523 -1.193 -5.592 0
-2.577 -1.212 -5.664 0
-2.596 -1.213 -5.658 0
-6.804 -1.798 -5.818 0
-6.791 -1.784 -5.734 0
-6.824 -1.789 -5.725 0
-7.203 -1.879 -5.927 0
-6.941 -1.779 -5.514 0
-6.96 -1.78 -5.494 0
-6.987 -1.785 -5.497 0
-7.009 -1.786 -5.479 0
-7.046 -1.791 -5.472 0
-7.071 -1.794 -5.456 0
-7.098 -1.796 -5.441 0
-7.127 -1.799 -5.428 0
-7.166 -1.805 -5.422 0
-7.203 -1.813 -5.432 0
-7.223 -1.814 -5.411 0
-7.266 -1.821 -5.409 0
-7.305 -1.827 -5.402 0
-7.349 -1.834 -5.399 0
-7.412 -1.846 -5.409 0
-7.454 -1.853 -5.404 0
-7.453 -1.85 -5.385 0
-7.464 -1.849 -5.357 0
-7.537 -1.863 -5.373 0
-7.609 -1.878 -5.389 0
-7.615 -1.875 -5.357 0
-7.688 -1.89 -5.372 0
-7.726 -1.895 -5.363 0
-7.795 -1.911 -5.392 0
-7.843 -1.919 -5.389 0
-7.794 -1.902 -5.319 0
-7.909 -1.927 -5.361 0
-3.486 -0.845 2.864 0
-3.473 -0.844 2.871 0
-3.453 -0.841 2.873 0
-3.455 -0.844 2.893 0
-3.249 -0.867 3.279 0
-3.243 -0.868 3.293 0
-3.235 -0.869 3.306 0
-3.22 -0.868 3.312 0
-3.223 -0.871 3.325 0
7.163 -1.937 -5.842 0
7.075 -1.917 -5.808 0
7.036 -1.91 -5.813 0
6.988 -1.902 -5.81 0
6.944 -1.894 -5.811 0
6.921 -1.893 -5.829 0
6.879 -1.883 -5.812 0
6.873 -1.887 -5.844 0
6.869 -1.891 -5.878 0
6.874 -1.898 -5.92 0
6.916 -1.916 -5.994 0
5.786 -1.703 -5.801 0
5.752 -1.697 -5.802 0
5.731 -1.696 -5.818 0
5.688 -1.689 -5.811 0
5.635 -1.678 -5.794 0
5.618 -1.678 -5.813 0
5.586 -1.671 -5.798 0
5.552 -1.666 -5.798 0
5.525 -1.663 -5.807 0
5.504 -1.662 -5.822 0
5.466 -1.656 -5.818 0
5.43 -1.65 -5.816 0
5.41 -1.646 -5.814 0
5.368 -1.639 -5.805 0
5.335 -1.634 -5.806 0
5.261 -1.621 -5.798 0
5.128 -1.598 -5.778 0
5.103 -1.596 -5.787 0
5.041 -1.587 -5.789 0
4.93 -1.568 -5.771 0
4.868 -1.562 -5.791 0
4.852 -1.563 -5.809 0
4.858 -1.572 -5.852 0
4.792 -1.555 -5.811 0
4.749 -1.546 -5.796 0
4.734 -1.544 -5.795 0
4.718 -1.545 -5.813 0
4.686 -1.54 -5.811 0
4.676 -1.543 -5.837 0
4.682 -1.552 -5.882 0
4.665 -1.552 -5.898 0
4.573 -1.523 -5.801 0
4.521 -1.511 -5.773 0
4.462 -1.496 -5.735 0
4.516 -1.522 -5.841 0
4.529 -1.533 -5.896 0
4.422 -1.501 -5.795 0
4.386 -1.495 -5.786 0
4.353 -1.486 -5.762 0
4.326 -1.482 -5.763 0
4.291 -1.476 -5.755 0
4.254 -1.469 -5.743 0
4.236 -1.469 -5.756 0
4.223 -1.471 -5.776 0
4.207 -1.472 -5.792 0
4.212 -1.477 -5.818 0
4.199 -1.479 -5.839 0
3.921 -1.439 -5.811 0
3.908 -1.441 -5.832 0
3.896 -1.444 -5.854 0
3.866 -1.439 -5.848 0
3.863 -1.442 -5.864 0
3.844 -1.441 -5.874 0
3.825 -1.441 -5.887 0
3.812 -1.443 -5.907 0
3.793 -1.443 -5.917 0
3.783 -1.447 -5.944 0
3.766 -1.447 -5.957 0
3.756 -1.447 -5.963 0
3.744 -1.45 -5.985 0
3.728 -1.451 -6.001 0
3.713 -1.453 -6.02 0
3.709 -1.459 -6.055 0
3.697 -1.462 -6.078 0
3.676 -1.461 -6.086 0
3.676 -1.465 -6.109 0
3.671 -1.472 -6.144 0
3.763 -1.546 -6.479 0
3.661 -1.51 -6.349 0
3.68 -1.523 -6.405 0
3.659 -1.522 -6.415 0
3.653 -1.529 -6.452 0
3.638 -1.531 -6.472 0
3.633 -1.538 -6.511 0
3.608 -1.536 -6.514 0
3.686 -1.606 -6.829 0
3.704 -1.625 -6.914 0
3.705 -1.635 -6.967 0
3.664 -1.626 -6.944 0
3.649 -1.629 -6.968 0
3.639 -1.63 -6.975 0
3.621 -1.632 -6.994 0
0.932 -1.127 -5.531 0
0.913 -1.125 -5.526 0
0.895 -1.124 -5.523 0
0.877 -1.122 -5.52 0
0.858 -1.121 -5.517 0
0.84 -1.119 -5.512 0
0.823 -1.119 -5.515 0
0.812 -1.117 -5.506 0
0.794 -1.116 -5.505 0
0.778 -1.117 -5.511 0
0.76 -1.116 -5.508 0
0.742 -1.115 -5.506 0
0.724 -1.114 -5.503 0
0.705 -1.112 -5.497 0
0.697 -1.113 -5.502 0
0.679 -1.111 -5.499 0
0.661 -1.11 -5.493 0
0.645 -1.112 -5.505 0
0.625 -1.108 -5.489 0
0.608 -1.108 -5.493 0
0.591 -1.108 -5.495 0
0.583 -1.109 -5.5 0
0.569 -1.117 -5.535 0
0.551 -1.114 -5.525 0
0.532 -1.11 -5.509 0
0.514 -1.11 -5.511 0
0.499 -1.114 -5.53 0
0.469 -1.085 -5.401 0
0.472 -1.113 -5.528 0
0.453 -1.109 -5.512 0
0.435 -1.107 -5.506 0
0.418 -1.107 -5.507 0
0.401 -1.107 -5.508 0
0.383 -1.106 -5.502 0
0.366 -1.106 -5.505 0
0.358 -1.109 -5.517 0
0.34 -1.106 -5.505 0
0.323 -1.108 -5.517 0
0.305 -1.106 -5.509 0
0.288 -1.108 -5.519 0
0.271 -1.109 -5.524 0
0.253 -1.107 -5.513 0
0.244 -1.105 -5.508 0
0.227 -1.107 -5.516 0
0.21 -1.108 -5.523 0
0.193 -1.108 -5.522 0
0.176 -1.108 -5.522 0
0.158 -1.107 -5.519 0
0.141 -1.106 -5.515 0
0.132 -1.109 -5.527 0
0.115 -1.108 -5.526 0
0.097 -1.106 -5.514 0
0.08 -1.108 -5.526 0
0.062 -1.101 -5.493 0
0.045 -1.104 -5.507 0
0.028 -1.109 -5.529 0
0.01 -1.101 -5.494 0
0.002 -1.107 -5.521 0
-0.015 -1.106 -5.515 0
-0.033 -1.108 -5.525 0
-0.05 -1.104 -5.509 0
-0.067 -1.104 -5.505 0
-0.085 -1.107 -5.522 0
-0.102 -1.107 -5.522 0
-0.111 -1.104 -5.506 0
-0.128 -1.105 -5.512 0
-0.145 -1.106 -5.513 0
-0.162 -1.1 -5.489 0
-0.18 -1.106 -5.514 0
-0.197 -1.101 -5.492 0
-0.206 -1.107 -5.515 0
-0.223 -1.104 -5.503 0
-0.24 -1.101 -5.49 0
-0.257 -1.103 -5.496 0
-0.274 -1.102 -5.493 0
-0.291 -1.101 -5.486 0
-0.31 -1.107 -5.512 0
-0.327 -1.104 -5.498 0
-0.336 -1.107 -5.511 0
-0.353 -1.106 -5.506 0
-0.37 -1.106 -5.503 0
-0.388 -1.107 -5.505 0
-0.405 -1.106 -5.5 0
-0.422 -1.106 -5.499 0
-0.44 -1.107 -5.505 0
-0.448 -1.104 -5.491 0
-0.466 -1.107 -5.501 0
-0.482 -1.104 -5.488 0
-0.501 -1.11 -5.51 0
-0.518 -1.107 -5.499 0
-0.534 -1.104 -5.483 0
-0.552 -1.106 -5.488 0
-0.561 -1.107 -5.491 0
-0.579 -1.109 -5.5 0
-0.593 -1.103 -5.471 0
-0.614 -1.11 -5.499 0
-0.63 -1.108 -5.491 0
-0.65 -1.113 -5.51 0
-0.664 -1.107 -5.481 0
-0.673 -1.107 -5.48 0
-0.69 -1.108 -5.482 0
-0.708 -1.108 -5.481 0
-0.745 -1.113 -5.498 0
-0.78 -1.114 -5.499 0
-0.789 -1.114 -5.496 0
-0.824 -1.115 -5.497 0
-0.84 -1.114 -5.486 0
-0.859 -1.115 -5.491 0
-0.894 -1.116 -5.488 0
-0.99 -1.117 -5.479 0
-1.242 -1.13 -5.486 0
-1.443 -1.141 -5.487 0
-1.459 -1.14 -5.477 0
-1.487 -1.149 -5.513 0
-1.496 -1.142 -5.479 0
-1.56 -1.19 -5.682 0
-1.473 -1.101 -5.293 0
-1.533 -1.137 -5.446 0
-1.558 -1.144 -5.467 0
-1.571 -1.141 -5.449 0
-1.596 -1.147 -5.473 0
-1.616 -1.149 -5.477 0
-1.619 -1.145 -5.456 0
-1.639 -1.147 -5.46 0
-1.716 -1.154 -5.467 0
-1.727 -1.148 -5.439 0
-1.741 -1.153 -5.457 0
-1.759 -1.154 -5.453 0
-1.778 -1.155 -5.453 0
-1.793 -1.153 -5.44 0
-1.815 -1.157 -5.451 0
-1.831 -1.156 -5.44 0
-1.853 -1.16 -5.451 0
-1.865 -1.162 -5.457 0
-1.881 -1.161 -5.448 0
-1.894 -1.158 -5.429 0
-1.916 -1.161 -5.437 0
-1.933 -1.162 -5.433 0
-1.95 -1.162 -5.427 0
-1.975 -1.167 -5.441 0
-1.991 -1.166 -5.431 0
-2 -1.167 -5.432 0
-2.025 -1.171 -5.446 0
-2.039 -1.169 -5.43 0
-2.063 -1.174 -5.444 0
-2.08 -1.174 -5.437 0
-2.101 -1.177 -5.442 0
-2.107 -1.175 -5.431 0
-2.133 -1.18 -5.446 0
-2.146 -1.178 -5.431 0
-2.172 -1.183 -5.446 0
-2.198 -1.188 -5.46 0
-2.213 -1.187 -5.45 0
-2.231 -1.188 -5.445 0
-2.253 -1.191 -5.45 0
-7.436 -1.935 -5.482 0
-7.437 -1.931 -5.447 0
-7.426 -1.923 -5.403 0
-7.446 -1.924 -5.382 0
-7.468 -1.925 -5.362 0
-7.511 -1.933 -5.357 0
-7.605 -1.956 -5.407 0
-7.669 -1.969 -5.416 0
-7.708 -1.975 -5.408 0
-7.755 -1.983 -5.405 0
-7.761 -1.98 -5.372 0
-7.803 -1.987 -5.366 0
-7.844 -1.994 -5.358 0
-3.485 -0.879 2.841 0
-3.479 -0.88 2.855 0
-3.473 -0.88 2.868 0
-3.462 -0.879 2.868 0
-3.235 -0.905 3.289 0
-3.221 -0.904 3.297 0
-3.219 -0.906 3.315 0
-3.222 -0.911 3.339 0
5.376 -1.715 -5.836 0
5.317 -1.701 -5.808 0
5.283 -1.696 -5.808 0
5.244 -1.688 -5.801 0
5.207 -1.682 -5.796 0
5.198 -1.682 -5.804 0
5.168 -1.678 -5.807 0
5.128 -1.67 -5.798 0
5.095 -1.665 -5.798 0
5.085 -1.668 -5.823 0
5.05 -1.662 -5.82 0
4.981 -1.654 -5.833 0
4.906 -1.64 -5.817 0
4.874 -1.635 -5.816 0
4.857 -1.635 -5.833 0
4.853 -1.641 -5.866 0
4.777 -1.616 -5.793 0
4.729 -1.612 -5.807 0
4.71 -1.612 -5.822 0
4.685 -1.609 -5.828 0
4.688 -1.617 -5.87 0
4.7 -1.628 -5.923 0
4.687 -1.631 -5.945 0
4.564 -1.588 -5.807 0
4.555 -1.591 -5.833 0
4.495 -1.576 -5.794 0
4.505 -1.586 -5.845 0
4.466 -1.578 -5.831 0
4.405 -1.562 -5.789 0
4.395 -1.565 -5.814 0
4.377 -1.562 -5.808 0
4.361 -1.562 -5.825 0
4.322 -1.554 -5.811 0
4.25 -1.534 -5.752 0
4.212 -1.525 -5.737 0
4.197 -1.527 -5.755 0
4.181 -1.528 -5.771 0
4.185 -1.533 -5.795 0
4.182 -1.539 -5.83 0
4.165 -1.539 -5.845 0
3.845 -1.68 -6.767 0
3.736 -1.638 -6.623 0
3.815 -1.686 -6.813 0
3.706 -1.644 -6.667 0
3.647 -1.625 -6.608 0
3.646 -1.63 -6.631 0
3.619 -1.627 -6.632 0
3.601 -1.649 -6.75 0
3.596 -1.657 -6.793 0
3.615 -1.678 -6.882 0
0.994 -1.172 -5.502 0
0.98 -1.177 -5.526 0
0.96 -1.173 -5.51 0
0.95 -1.171 -5.504 0
0.93 -1.168 -5.494 0
0.912 -1.166 -5.491 0
0.896 -1.168 -5.501 0
0.877 -1.165 -5.49 0
0.859 -1.164 -5.489 0
0.842 -1.165 -5.498 0
0.831 -1.161 -5.482 0
0.816 -1.164 -5.496 0
0.797 -1.162 -5.491 0
0.78 -1.162 -5.493 0
0.763 -1.163 -5.5 0
0.744 -1.159 -5.486 0
0.727 -1.159 -5.489 0
0.718 -1.16 -5.492 0
0.701 -1.159 -5.49 0
0.681 -1.155 -5.473 0
0.667 -1.16 -5.498 0
0.648 -1.157 -5.489 0
0.631 -1.157 -5.491 0
0.614 -1.159 -5.499 0
0.605 -1.158 -5.496 0
0.586 -1.154 -5.48 0
0.57 -1.157 -5.497 0
0.552 -1.155 -5.488 0
0.535 -1.155 -5.489 0
0.519 -1.159 -5.508 0
0.5 -1.153 -5.485 0
0.491 -1.152 -5.482 0
0.473 -1.151 -5.481 0
0.457 -1.154 -5.494 0
0.439 -1.152 -5.488 0
0.424 -1.159 -5.517 0
0.405 -1.154 -5.498 0
0.385 -1.145 -5.461 0
0.256 -1.141 -5.453 0
0.213 -1.144 -5.464 0
0.179 -1.146 -5.477 0
0.162 -1.144 -5.466 0
0.154 -1.147 -5.48 0
0.137 -1.149 -5.488 0
-0.01 -1.152 -5.505 0
-0.027 -1.149 -5.49 0
-0.122 -1.145 -5.475 0
-0.156 -1.142 -5.458 0
-1.43 -1.183 -5.456 0
-1.442 -1.178 -5.43 0
-1.463 -1.182 -5.439 0
-1.477 -1.187 -5.459 0
-1.625 -1.189 -5.425 0
-1.635 -1.183 -5.398 0
-1.657 -1.187 -5.407 0
-1.676 -1.189 -5.41 0
-1.686 -1.184 -5.384 0
-1.702 -1.189 -5.404 0
-1.723 -1.192 -5.409 0
-1.741 -1.193 -5.408 0
-1.757 -1.192 -5.4 0
-1.778 -1.196 -5.408 0
-1.79 -1.192 -5.387 0
-1.824 -1.204 -5.431 0
-1.848 -1.209 -5.446 0
-1.87 -1.218 -5.48 0
-1.917 -1.239 -5.56 0
-1.973 -1.266 -5.663 0
-2.011 -1.28 -5.713 0
-2.055 -1.298 -5.78 0
-2.081 -1.303 -5.794 0
-2.097 -1.302 -5.782 0
-2.112 -1.306 -5.795 0
-2.127 -1.304 -5.781 0
-2.151 -1.308 -5.789 0
-2.151 -1.296 -5.735 0
-2.149 -1.283 -5.675 0
-2.066 -1.218 -5.409 0
-2.078 -1.215 -5.388 0
-2.095 -1.22 -5.406 0
-2.117 -1.223 -5.412 0
-2.133 -1.223 -5.404 0
-2.153 -1.224 -5.404 0
-2.169 -1.224 -5.396 0
-2.192 -1.228 -5.403 0
-2.216 -1.232 -5.414 0
-2.226 -1.233 -5.414 0
-2.253 -1.239 -5.431 0
-2.275 -1.242 -5.436 0
-7.445 -2.01 -5.42 0
-7.448 -2.006 -5.387 0
-7.443 -2 -5.348 0
-7.688 -2.043 -5.324 0
-3.438 -0.906 2.812 0
-3.416 -0.902 2.812 0
-3.402 -0.9 2.819 0
-3.416 -0.907 2.848 0
-3.223 -0.949 3.322 0
-3.158 -0.931 3.274 0
-3.149 -0.931 3.286 0
-3.156 -0.935 3.303 0
-3.152 -0.937 3.32 0
5.063 -1.741 -5.894 0
4.978 -1.716 -5.833 0
4.931 -1.706 -5.815 0
4.907 -1.704 -5.825 0
4.893 -1.702 -5.826 0
4.879 -1.703 -5.846 0
4.829 -1.692 -5.824 0
4.777 -1.679 -5.799 0
4.754 -1.677 -5.808 0
4.717 -1.67 -5.8 0
4.691 -1.667 -5.804 0
4.68 -1.666 -5.81 0
4.65 -1.662 -5.81 0
4.621 -1.658 -5.811 0
4.588 -1.652 -5.807 0
4.559 -1.648 -5.808 0
4.529 -1.644 -5.808 0
4.492 -1.636 -5.798 0
4.489 -1.638 -5.812 0
4.431 -1.623 -5.776 0
4.433 -1.631 -5.816 0
4.421 -1.633 -5.837 0
4.385 -1.626 -5.828 0
4.353 -1.621 -5.823 0
4.315 -1.613 -5.81 0
4.257 -1.593 -5.752 0
4.222 -1.587 -5.743 0
4.2 -1.585 -5.75 0
4.19 -1.588 -5.774 0
4.2 -1.6 -5.827 0
4.171 -1.596 -5.826 0
4.162 -1.599 -5.851 0
3.691 -1.609 -6.205 0
3.681 -1.609 -6.211 0
3.671 -1.613 -6.239 0
3.665 -1.619 -6.272 0
3.649 -1.621 -6.29 0
3.653 -1.632 -6.342 0
3.632 -1.632 -6.352 0
3.625 -1.638 -6.387 0
3.623 -1.647 -6.43 0
3.613 -1.647 -6.436 0
3.619 -1.66 -6.493 0
3.628 -1.674 -6.557 0
3.622 -1.682 -6.596 0
3.623 -1.693 -6.646 0
1.077 -1.234 -5.554 0
1.059 -1.233 -5.554 0
1.039 -1.229 -5.54 0
1.017 -1.223 -5.52 0
1.01 -1.226 -5.533 0
0.991 -1.223 -5.525 0
0.972 -1.222 -5.52 0
0.953 -1.219 -5.512 0
0.935 -1.219 -5.515 0
0.919 -1.221 -5.526 0
0.913 -1.237 -5.596 0
0.925 -1.267 -5.72 0
0.923 -1.291 -5.824 0
0.912 -1.303 -5.873 0
0.892 -1.299 -5.861 0
0.872 -1.298 -5.858 0
0.849 -1.289 -5.826 0
0.83 -1.289 -5.827 0
0.823 -1.292 -5.841 0
0.812 -1.304 -5.894 0
0.788 -1.294 -5.856 0
0.769 -1.295 -5.86 0
0.749 -1.291 -5.849 0
0.729 -1.289 -5.84 0
0.71 -1.287 -5.835 0
0.691 -1.285 -5.829 0
0.682 -1.286 -5.836 0
0.661 -1.28 -5.813 0
0.644 -1.282 -5.823 0
0.625 -1.282 -5.823 0
0.604 -1.277 -5.803 0
0.573 -1.246 -5.678 0
0.538 -1.206 -5.513 0
0.529 -1.204 -5.508 0
0.511 -1.204 -5.51 0
0.492 -1.199 -5.488 0
0.478 -1.207 -5.524 0
0.458 -1.201 -5.503 0
0.44 -1.199 -5.492 0
0.432 -1.201 -5.503 0
0.416 -1.205 -5.52 0
0.399 -1.205 -5.521 0
0.381 -1.201 -5.509 0
0.364 -1.204 -5.521 0
0.311 -1.2 -5.505 0
0.302 -1.2 -5.506 0
0.285 -1.201 -5.514 0
0.269 -1.204 -5.525 0
0.25 -1.2 -5.508 0
0.234 -1.205 -5.532 0
0.215 -1.198 -5.504 0
0.199 -1.205 -5.532 0
0.189 -1.197 -5.499 0
0.173 -1.207 -5.54 0
0.156 -1.205 -5.535 0
0.138 -1.2 -5.514 0
0.121 -1.206 -5.538 0
-1.422 -1.24 -5.502 0
-1.428 -1.237 -5.489 0
-1.56 -1.241 -5.467 0
-1.573 -1.237 -5.447 0
-1.59 -1.236 -5.44 0
-1.614 -1.243 -5.459 0
-1.629 -1.241 -5.447 0
-1.652 -1.245 -5.46 0
-1.665 -1.243 -5.444 0
-1.673 -1.242 -5.439 0
-1.694 -1.245 -5.445 0
-1.745 -1.273 -5.551 0
-1.813 -1.313 -5.707 0
-1.867 -1.342 -5.815 0
-1.89 -1.346 -5.824 0
-1.911 -1.347 -5.825 0
-1.918 -1.346 -5.817 0
-1.904 -1.321 -5.713 0
-1.923 -1.322 -5.71 0
-1.948 -1.327 -5.723 0
-1.996 -1.35 -5.807 0
-2.019 -1.354 -5.815 0
-2.04 -1.355 -5.816 0
-2.051 -1.357 -5.818 0
-2.066 -1.354 -5.803 0
-2.092 -1.36 -5.818 0
-2.107 -1.358 -5.802 0
-2.132 -1.362 -5.814 0
-2.147 -1.36 -5.798 0
-2.171 -1.364 -5.806 0
-2.181 -1.365 -5.806 0
-2.196 -1.362 -5.79 0
-2.217 -1.364 -5.791 0
-2.223 -1.356 -5.753 0
-2.235 -1.352 -5.729 0
-2.244 -1.346 -5.699 0
-2.195 -1.302 -5.522 0
-2.182 -1.283 -5.439 0
-2.189 -1.282 -5.432 0
-2.209 -1.284 -5.432 0
-2.231 -1.287 -5.438 0
-2.251 -1.289 -5.438 0
-2.279 -1.295 -5.456 0
-2.292 -1.293 -5.44 0
-2.309 -1.292 -5.431 0
-2.677 -1.396 -5.741 0
-3.479 -0.954 2.84 0
-3.443 -0.946 2.828 0
-3.452 -0.951 2.854 0
-3.434 -0.949 2.857 0
-3.182 -0.98 3.322 0
-3.166 -0.979 3.326 0
-3.158 -0.979 3.339 0
-3.165 -0.986 3.367 0
4.638 -1.723 -5.734 0
4.63 -1.731 -5.78 0
4.591 -1.722 -5.767 0
4.576 -1.724 -5.786 0
4.548 -1.72 -5.788 0
4.565 -1.734 -5.847 0
4.525 -1.725 -5.834 0
4.439 -1.694 -5.741 0
4.407 -1.688 -5.736 0
4.372 -1.681 -5.728 0
4.351 -1.679 -5.737 0
4.311 -1.67 -5.721 0
4.271 -1.661 -5.705 0
4.259 -1.66 -5.709 0
4.236 -1.658 -5.714 0
4.196 -1.648 -5.698 0
4.16 -1.641 -5.686 0
4.134 -1.637 -5.688 0
4.103 -1.631 -5.682 0
4.085 -1.631 -5.695 0
4.084 -1.635 -5.712 0
4.067 -1.635 -5.727 0
4.081 -1.649 -5.786 0
4.076 -1.655 -5.817 0
3.693 -1.628 -5.94 0
3.673 -1.627 -5.948 0
3.649 -1.625 -5.952 0
3.631 -1.625 -5.965 0
3.614 -1.626 -5.979 0
3.604 -1.63 -6.006 0
3.589 -1.632 -6.024 0
3.586 -1.635 -6.039 0
3.552 -1.647 -6.113 0
3.55 -1.656 -6.155 0
3.542 -1.661 -6.186 0
3.556 -1.678 -6.256 0
3.572 -1.692 -6.308 0
3.839 -1.839 -6.834 0
1.483 -1.346 -5.679 0
1.031 -1.269 -5.463 0
1.015 -1.27 -5.471 0
0.992 -1.263 -5.446 0
0.975 -1.263 -5.449 0
0.958 -1.263 -5.454 0
0.938 -1.258 -5.436 0
0.919 -1.256 -5.429 0
0.941 -1.303 -5.618 0
0.938 -1.326 -5.711 0
0.924 -1.333 -5.741 0
0.908 -1.335 -5.754 0
0.889 -1.335 -5.755 0
0.871 -1.334 -5.753 0
0.858 -1.344 -5.796 0
0.848 -1.342 -5.79 0
0.828 -1.339 -5.779 0
0.81 -1.34 -5.786 0
0.783 -1.322 -5.719 0
0.759 -1.31 -5.675 0
0.736 -1.301 -5.639 0
0.713 -1.29 -5.597 0
0.703 -1.288 -5.591 0
0.685 -1.286 -5.585 0
0.664 -1.277 -5.554 0
0.647 -1.28 -5.566 0
0.63 -1.281 -5.574 0
0.612 -1.279 -5.566 0
0.596 -1.284 -5.587 0
0.59 -1.289 -5.61 0
0.576 -1.298 -5.648 0
0.562 -1.31 -5.694 0
0.548 -1.319 -5.733 0
0.533 -1.327 -5.769 0
0.513 -1.323 -5.753 0
0.494 -1.321 -5.747 0
0.482 -1.311 -5.709 0
0.464 -1.309 -5.701 0
0.445 -1.307 -5.693 0
0.422 -1.29 -5.628 0
0.394 -1.25 -5.471 0
0.373 -1.236 -5.416 0
0.357 -1.241 -5.435 0
0.347 -1.235 -5.412 0
0.331 -1.237 -5.423 0
0.314 -1.236 -5.42 0
0.296 -1.234 -5.411 0
0.28 -1.237 -5.424 0
0.262 -1.234 -5.413 0
0.247 -1.244 -5.456 0
-1.562 -1.284 -5.4 0
-1.572 -1.278 -5.37 0
-1.588 -1.277 -5.362 0
-1.596 -1.277 -5.359 0
-1.619 -1.282 -5.373 0
-1.634 -1.281 -5.364 0
-1.652 -1.282 -5.363 0
-1.748 -1.347 -5.607 0
-1.804 -1.379 -5.722 0
-1.797 -1.359 -5.638 0
-1.781 -1.338 -5.558 0
-1.783 -1.326 -5.506 0
-1.804 -1.328 -5.51 0
-1.808 -1.318 -5.466 0
-1.824 -1.318 -5.458 0
-1.845 -1.321 -5.463 0
-1.853 -1.313 -5.43 0
-1.862 -1.314 -5.429 0
-1.885 -1.318 -5.439 0
-1.892 -1.31 -5.404 0
-1.914 -1.314 -5.413 0
-1.93 -1.314 -5.405 0
-1.943 -1.311 -5.388 0
-1.97 -1.318 -5.409 0
-1.984 -1.322 -5.421 0
-2.002 -1.323 -5.416 0
-2.029 -1.33 -5.437 0
-2.092 -1.362 -5.55 0
-2.155 -1.393 -5.661 0
-2.199 -1.412 -5.723 0
-2.221 -1.415 -5.727 0
-2.225 -1.411 -5.711 0
-2.255 -1.419 -5.733 0
-2.268 -1.416 -5.713 0
-2.281 -1.413 -5.695 0
-2.295 -1.41 -5.677 0
-2.301 -1.402 -5.641 0
-2.302 -1.392 -5.595 0
-2.304 -1.387 -5.575 0
-2.291 -1.368 -5.496 0
-2.265 -1.34 -5.385 0
-2.269 -1.331 -5.348 0
-2.296 -1.338 -5.366 0
-2.315 -1.339 -5.362 0
-2.336 -1.342 -5.365 0
-2.359 -1.346 -5.372 0
-3.464 -0.989 2.78 0
-3.431 -0.981 2.771 0
-3.418 -0.98 2.778 0
-3.417 -0.982 2.795 0
-3.188 -1.029 3.317 0
-3.129 -1.011 3.276 0
-3.142 -1.02 3.31 0
-3.123 -1.017 3.311 0
4.78 -1.857 -5.904 0
4.631 -1.803 -5.758 0
4.615 -1.804 -5.776 0
4.597 -1.8 -5.771 0
4.575 -1.798 -5.781 0
