-0.696 -2.014 -5.113 40
-0.711 -2.008 -5.098 40
-0.725 -2.003 -5.083 40
-0.743 -2.01 -5.099 40
-0.758 -2.007 -5.087 40
-0.775 -2.009 -5.091 40
-0.793 -2.014 -5.101 40
-0.798 -2.006 -5.08 40
-0.815 -2.01 -5.086 40
-0.83 -2.007 -5.078 40
-0.847 -2.008 -5.077 40
-0.861 -2.005 -5.067 40
-0.88 -2.012 -5.081 40
-0.895 -2.01 -5.073 40
-0.91 -2.007 -5.063 40
-0.919 -2.01 -5.07 40
-0.934 -2.009 -5.064 40
-0.949 -2.006 -5.053 40
-0.966 -2.007 -5.054 40
-0.979 -2.001 -5.037 40
-0.994 -2.001 -5.033 40
-1.012 -2.004 -5.038 40
-1.022 -2.01 -5.049 40
-1.035 -2.004 -5.033 40
-1.052 -2.005 -5.031 40
-1.063 -1.997 -5.008 40
-1.081 -2.001 -5.014 40
-1.097 -2.001 -5.012 40
-1.112 -2.001 -5.007 40
-1.119 -1.999 -5.001 40
-1.137 -2.003 -5.007 40
-1.152 -2.002 -5.002 40
-1.169 -2.003 -5 40
-1.182 -2 -4.989 40
-1.199 -2.001 -4.989 40
-1.211 -1.995 -4.97 40
-1.222 -2.001 -4.981 40
-1.234 -1.994 -4.963 40
-1.251 -1.997 -4.966 40
-1.269 -2.001 -4.971 40
-1.281 -1.995 -4.953 40
-1.301 -2.002 -4.965 40
-1.317 -2.003 -4.963 40
-1.324 -2.001 -4.957 40
-1.341 -2.003 -4.956 40
-1.357 -2.004 -4.956 40
-1.37 -2 -4.941 40
-1.385 -1.999 -4.935 40
-1.401 -2.001 -4.934 40
-1.414 -1.997 -4.92 40
-1.425 -2.002 -4.931 40
-1.443 -2.004 -4.931 40
-1.456 -2.001 -4.92 40
-1.472 -2.002 -4.917 40
-1.488 -2.003 -4.914 40
-1.497 -1.994 -4.89 40
-1.514 -1.996 -4.889 40
-1.534 -2.003 -4.9 40
-1.535 -1.994 -4.876 40
-1.55 -1.994 -4.871 40
-1.572 -2.002 -4.886 40
-1.582 -1.995 -4.865 40
-1.6 -1.999 -4.869 40
-1.615 -1.998 -4.862 40
-1.624 -2 -4.863 40
-1.633 -1.992 -4.84 40
-1.653 -1.998 -4.849 40
-1.67 -2.001 -4.849 40
-1.683 -1.997 -4.837 40
-1.702 -2.003 -4.844 40
-1.715 -2 -4.832 40
-1.733 -2.003 -4.833 40
-1.738 -2 -4.823 40
-1.753 -2 -4.818 40
-1.768 -1.999 -4.811 40
-1.783 -2 -4.807 40
-1.798 -2 -4.801 40
-1.812 -1.998 -4.792 40
-1.825 -1.995 -4.78 40
-1.833 -1.996 -4.778 40
-1.852 -2.001 -4.785 40
-1.867 -2.001 -4.779 40
-1.876 -1.994 -4.756 40
-1.893 -1.997 -4.757 40
-1.91 -1.999 -4.756 40
-1.924 -1.997 -4.746 40
-1.924 -1.989 -4.725 40
-1.945 -1.997 -4.736 40
-1.963 -2 -4.736 40
-1.977 -1.999 -4.728 40
-1.992 -1.999 -4.722 40
-2.006 -1.998 -4.714 40
-2.016 -1.993 -4.696 40
-2.026 -1.996 -4.7 40
-2.041 -1.996 -4.693 40
-2.057 -1.997 -4.69 40
-2.065 -1.991 -4.668 40
-2.084 -1.995 -4.672 40
-2.098 -1.994 -4.664 40
-2.111 -1.993 -4.654 40
-2.123 -1.997 -4.661 40
-2.138 -1.997 -4.654 40
-2.147 -1.992 -4.635 40
-2.167 -1.997 -4.64 40
-2.183 -1.999 -4.637 40
-2.191 -1.992 -4.615 40
-2.206 -1.993 -4.61 40
-2.225 -1.997 -4.611 40
-2.233 -1.997 -4.609 40
-2.245 -1.996 -4.599 40
-2.261 -1.997 -4.593 40
-2.273 -1.994 -4.581 40
-2.286 -1.994 -4.573 40
-2.303 -1.996 -4.57 40
-2.314 -1.993 -4.556 40
-2.319 -1.991 -4.55 40
-2.339 -1.996 -4.552 40
-2.35 -1.993 -4.538 40
-2.366 -1.994 -4.534 40
-2.38 -1.994 -4.527 40
-2.393 -1.994 -4.517 40
-2.409 -1.995 -4.513 40
-2.414 -1.993 -4.504 40
-2.426 -1.991 -4.494 40
-2.442 -1.993 -4.489 40
-2.455 -1.992 -4.48 40
-2.465 -1.988 -4.464 40
-2.48 -1.99 -4.46 40
-2.504 -1.997 -4.468 40
-2.502 -1.991 -4.449 40
-2.516 -1.991 -4.442 40
-2.529 -1.99 -4.432 40
-2.55 -1.995 -4.435 40
-2.555 -1.988 -4.413 40
-2.569 -1.988 -4.405 40
-2.583 -1.988 -4.397 40
-2.595 -1.992 -4.401 40
-2.603 -1.988 -4.383 40
-2.616 -1.988 -4.375 40
-2.631 -1.988 -4.368 40
-2.646 -1.989 -4.361 40
-2.659 -1.988 -4.351 40
-2.664 -1.982 -4.331 40
-2.683 -1.986 -4.33 40
-2.694 -1.989 -4.332 40
-2.7 -1.984 -4.313 40
-2.72 -1.988 -4.313 40
-2.73 -1.986 -4.3 40
-2.742 -1.984 -4.288 40
-2.755 -1.984 -4.28 40
-2.755 -1.979 -4.265 40
-2.769 -1.98 -4.258 40
-2.783 -1.98 -4.249 40
-2.796 -1.98 -4.24 40
-2.811 -1.981 -4.234 40
-2.823 -1.98 -4.222 40
-2.834 -1.978 -4.21 40
-2.839 -1.978 -4.204 40
-2.859 -1.982 -4.205 40
-2.87 -1.981 -4.193 40
-2.883 -1.981 -4.184 40
-2.895 -1.98 -4.173 40
-2.91 -1.981 -4.167 40
-2.914 -1.975 -4.144 40
-2.925 -1.978 -4.146 40
-2.932 -1.974 -4.129 40
-2.954 -1.98 -4.132 40
-2.95 -1.968 -4.1 40
-2.974 -1.976 -4.106 40
-2.979 -1.971 -4.086 40
-2.992 -1.971 -4.076 40
-3.011 -1.975 -4.074 40
-3.008 -1.968 -4.058 40
-3.026 -1.972 -4.056 40
-3.032 -1.968 -4.037 40
-3.046 -1.968 -4.029 40
-3.062 -1.971 -4.024 40
-3.073 -1.969 -4.012 40
-3.081 -1.966 -3.996 40
-3.09 -1.968 -3.996 40
-3.655 -1.938 -3.378 40
-3.637 -1.922 -3.341 40
-3.661 -1.93 -3.342 40
-3.658 -1.922 -3.318 40
-3.673 -1.924 -3.31 40
-3.676 -1.92 -3.292 40
-3.678 -1.916 -3.273 40
-3.685 -1.917 -3.269 40
-3.7 -1.92 -3.262 40
-3.694 -1.91 -3.236 40
-3.711 -1.914 -3.23 40
-3.716 -1.911 -3.214 40
-3.731 -1.914 -3.207 40
-3.73 -1.908 -3.186 40
-3.735 -1.908 -3.18 40
-3.739 -1.905 -3.163 40
-3.755 -1.908 -3.156 40
-3.742 -1.896 -3.126 40
-3.77 -1.906 -3.129 40
-3.763 -1.897 -3.103 40
-3.791 -1.907 -3.106 40
-3.789 -1.903 -3.095 40
-3.794 -1.901 -3.079 40
-3.804 -1.901 -3.067 40
-3.821 -1.904 -3.061 40
-3.823 -1.901 -3.043 40
-3.84 -1.904 -3.037 40
-3.842 -1.901 -3.019 40
-3.847 -1.901 -3.013 40
-3.848 -1.896 -2.994 40
-3.867 -1.901 -2.99 40
-3.875 -1.901 -2.977 40
-3.874 -1.895 -2.957 40
-3.891 -1.899 -2.95 40
-3.89 -1.894 -2.93 40
-3.89 -1.891 -2.921 40
-3.911 -1.897 -2.917 40
-3.92 -1.897 -2.905 40
-3.914 -1.89 -2.882 40
-3.919 -1.888 -2.866 40
-3.934 -1.891 -2.858 40
-3.956 -1.897 -2.856 40
-3.955 -1.894 -2.845 40
-3.955 -1.89 -2.826 40
-3.961 -1.888 -2.812 40
-3.965 -1.886 -2.796 40
-3.971 -1.884 -2.781 40
-3.982 -1.886 -2.771 40
-3.993 -1.887 -2.76 40
-4.004 -1.891 -2.759 40
-4.033 -1.901 -2.759 40
-4.014 -1.887 -2.728 40
-4.01 -1.881 -2.707 40
-4.017 -1.88 -2.694 40
-4.02 -1.877 -2.677 40
-4.028 -1.877 -2.664 40
-4.048 -1.884 -2.668 40
-4.034 -1.874 -2.641 40
-4.044 -1.875 -2.63 40
-4.051 -1.874 -2.616 40
-4.062 -1.875 -2.605 40
-4.056 -1.868 -2.584 40
-4.081 -1.877 -2.582 40
-4.086 -1.877 -2.575 40
-4.087 -1.874 -2.558 40
-4.086 -1.869 -2.54 40
-4.095 -1.87 -2.528 40
-4.107 -1.872 -2.517 40
-4.108 -1.868 -2.5 40
-4.133 -1.877 -2.498 40
-4.118 -1.868 -2.48 40
-4.129 -1.869 -2.469 40
-4.131 -1.866 -2.452 40
-4.14 -1.867 -2.44 40
-4.147 -1.867 -2.427 40
-4.184 -1.881 -2.43 40
-4.161 -1.866 -2.4 40
-4.159 -1.862 -2.381 40
-4.155 -1.858 -2.37 40
-4.177 -1.862 -2.349 40
-4.178 -1.859 -2.332 40
-4.174 -1.853 -2.313 40
-4.191 -1.858 -2.305 40
-4.194 -1.855 -2.289 40
-4.197 -1.855 -2.282 40
-4.195 -1.851 -2.264 40
-4.208 -1.854 -2.254 40
-4.215 -1.854 -2.241 40
-4.217 -1.852 -2.225 40
-4.224 -1.852 -2.212 40
-4.223 -1.848 -2.194 40
-4.22 -1.845 -2.184 40
-4.225 -1.844 -2.17 40
-4.248 -1.852 -2.165 40
-4.237 -1.843 -2.143 40
-4.257 -1.849 -2.136 40
-4.245 -1.841 -2.114 40
-4.269 -1.849 -2.109 40
-4.267 -1.846 -2.099 40
-4.275 -1.847 -2.087 40
3.62 -1.632 2.199 40
3.648 -1.642 2.2 40
3.655 -1.642 2.189 40
3.65 -1.638 2.178 40
3.67 -1.644 2.174 40
3.664 -1.638 2.155 40
3.674 -1.639 2.146 40
3.669 -1.634 2.128 40
3.684 -1.638 2.121 40
3.71 -1.649 2.128 40
3.697 -1.639 2.105 40
3.714 -1.644 2.099 40
3.727 -1.647 2.091 40
3.723 -1.643 2.074 40
3.743 -1.649 2.069 40
3.741 -1.645 2.053 40
3.753 -1.649 2.051 40
3.761 -1.649 2.04 40
3.78 -1.655 2.036 40
3.772 -1.649 2.016 40
3.851 -1.654 1.89 40
3.878 -1.664 1.888 40
3.878 -1.661 1.873 40
3.89 -1.664 1.864 40
3.922 -1.664 1.796 40
3.941 -1.67 1.79 40
3.935 -1.665 1.772 40
3.957 -1.672 1.768 40
3.973 -1.678 1.767 40
3.976 -1.677 1.753 40
3.988 -1.68 1.744 40
3.975 -1.672 1.723 40
3.983 -1.673 1.712 40
3.992 -1.675 1.701 40
4.001 -1.676 1.69 40
4.017 -1.682 1.689 40
4.014 -1.678 1.673 40
4.019 -1.678 1.661 40
4.028 -1.68 1.649 40
4.05 -1.688 1.643 40
4.048 -1.684 1.628 40
4.072 -1.693 1.623 40
4.084 -1.697 1.62 40
4.099 -1.701 1.611 40
4.121 -1.709 1.605 40
4.126 -1.709 1.592 40
4.138 -1.712 1.581 40
4.142 -1.711 1.568 40
4.155 -1.715 1.558 40
4.154 -1.714 1.55 40
4.155 -1.712 1.536 40
4.165 -1.714 1.524 40
4.174 -1.716 1.513 40
4.173 -1.714 1.498 40
4.176 -1.713 1.484 40
4.181 -1.713 1.471 40
4.201 -1.72 1.47 40
4.193 -1.715 1.453 40
4.182 -1.708 1.434 40
4.198 -1.714 1.425 40
4.201 -1.713 1.411 40
4.193 -1.707 1.394 40
4.21 -1.714 1.392 40
4.209 -1.711 1.377 40
4.208 -1.709 1.362 40
4.214 -1.71 1.35 40
4.225 -1.713 1.339 40
4.22 -1.709 1.323 40
4.216 -1.705 1.307 40
4.22 -1.705 1.294 40
4.234 -1.71 1.291 40
4.229 -1.707 1.275 40
4.246 -1.712 1.265 40
4.242 -1.709 1.25 40
4.25 -1.71 1.237 40
4.25 -1.709 1.223 40
4.263 -1.713 1.212 40
4.263 -1.712 1.205 40
4.272 -1.714 1.193 40
4.263 -1.709 1.176 40
4.264 -1.707 1.162 40
4.267 -1.707 1.148 40
4.271 -1.707 1.135 40
4.278 -1.71 1.13 40
4.292 -1.714 1.119 40
4.28 -1.707 1.101 40
4.294 -1.712 1.091 40
4.285 -1.707 1.074 40
4.302 -1.713 1.064 40
4.324 -1.72 1.055 40
14.813 -6.262 -3.096 40
14.829 -6.273 -3.148 40
14.788 -6.26 -3.188 40
14.782 -6.261 -3.235 40
14.796 -6.27 -3.263 40
14.8 -6.276 -3.312 40
14.826 -6.291 -3.367 40
14.828 -6.297 -3.416 40
14.828 -6.302 -3.466 40
14.779 -6.292 -3.577 40
14.773 -6.295 -3.624 40
4.143 -1.699 -1.182 40
4.135 -1.696 -1.187 40
4.16 -1.709 -1.208 40
4.138 -1.701 -1.216 40
4.133 -1.7 -1.228 40
4.129 -1.7 -1.241 40
4.143 -1.708 -1.26 40
4.121 -1.7 -1.267 40
4.119 -1.7 -1.274 40
4.131 -1.707 -1.291 40
4.127 -1.707 -1.304 40
4.114 -1.703 -1.315 40
4.108 -1.703 -1.327 40
4.106 -1.703 -1.34 40
4.101 -1.703 -1.353 40
4.108 -1.707 -1.363 40
4.098 -1.705 -1.374 40
4.098 -1.706 -1.388 40
4.1 -1.71 -1.403 40
4.085 -1.705 -1.412 40
4.088 -1.708 -1.428 40
4.085 -1.709 -1.441 40
4.068 -1.703 -1.45 40
4.071 -1.706 -1.458 40
4.074 -1.709 -1.473 40
4.066 -1.707 -1.485 40
4.066 -1.71 -1.499 40
4.053 -1.706 -1.509 40
4.046 -1.705 -1.521 40
4.049 -1.707 -1.529 40
4.046 -1.708 -1.543 40
4.062 -1.717 -1.563 40
4.038 -1.709 -1.569 40
4.024 -1.705 -1.578 40
4.023 -1.706 -1.592 40
4.019 -1.707 -1.605 40
4.013 -1.706 -1.61 40
4.022 -1.712 -1.628 40
4.017 -1.712 -1.641 40
4.008 -1.71 -1.652 40
4.008 -1.713 -1.667 40
3.996 -1.71 -1.677 40
3.999 -1.713 -1.693 40
3.988 -1.71 -1.695 40
3.983 -1.71 -1.708 40
3.977 -1.71 -1.72 40
3.972 -1.71 -1.733 40
3.972 -1.712 -1.748 40
3.956 -1.707 -1.756 40
3.962 -1.713 -1.773 40
3.953 -1.71 -1.777 40
3.954 -1.713 -1.792 40
3.947 -1.712 -1.804 40
3.946 -1.714 -1.818 40
3.942 -1.715 -1.831 40
3.936 -1.715 -1.844 40
3.927 -1.713 -1.855 40
3.926 -1.714 -1.862 40
3.927 -1.717 -1.877 40
3.916 -1.715 -1.887 40
3.908 -1.714 -1.898 40
3.899 -1.713 -1.909 40
3.898 -1.715 -1.924 40
3.903 -1.72 -1.942 40
3.892 -1.717 -1.944 40
3.891 -1.719 -1.958 40
3.881 -1.717 -1.969 40
3.877 -1.718 -1.982 40
3.859 -1.713 -1.988 40
3.871 -1.721 -2.01 40
3.864 -1.721 -2.022 40
3.861 -1.721 -2.028 40
3.861 -1.724 -2.043 40
3.843 -1.719 -2.05 40
3.834 -1.717 -2.06 40
3.837 -1.722 -2.077 40
3.83 -1.722 -2.089 40
3.824 -1.72 -2.093 40
3.829 -1.726 -2.112 40
3.828 -1.729 -2.127 40
3.809 -1.723 -2.132 40
3.821 -1.732 -2.155 40
3.816 -1.733 -2.168 40
3.801 -1.729 -2.175 40
3.803 -1.731 -2.184 40
3.801 -1.734 -2.198 40
3.795 -1.734 -2.211 40
3.79 -1.735 -2.224 40
3.785 -1.736 -2.237 40
3.781 -1.738 -2.251 40
3.771 -1.736 -2.261 40
3.771 -1.74 -2.277 40
3.769 -1.741 -2.284 40
3.761 -1.74 -2.295 40
3.747 -1.737 -2.303 40
3.752 -1.743 -2.322 40
3.743 -1.742 -2.333 40
3.736 -1.742 -2.345 40
3.743 -1.749 -2.366 40
3.725 -1.742 -2.363 40
3.725 -1.746 -2.379 40
3.718 -1.746 -2.391 40
3.721 -1.752 -2.409 40
3.7 -1.745 -2.412 40
3.712 -1.755 -2.437 40
3.689 -1.747 -2.438 40
3.687 -1.748 -2.445 40
3.687 -1.752 -2.462 40
3.676 -1.75 -2.471 40
3.668 -1.75 -2.483 40
3.689 -1.765 -2.514 40
3.663 -1.755 -2.513 40
3.654 -1.755 -2.524 40
3.648 -1.754 -2.528 40
3.642 -1.755 -2.541 40
3.634 -1.755 -2.552 40
3.629 -1.756 -2.566 40
3.616 -1.754 -2.574 40
3.602 -1.751 -2.581 40
3.601 -1.755 -2.598 40
3.594 -1.753 -2.601 40
3.601 -1.761 -2.623 40
3.572 -1.75 -2.619 40
3.58 -1.759 -2.643 40
3.584 -1.765 -2.663 40
3.574 -1.764 -2.673 40
3.561 -1.759 -2.672 40
3.554 -1.76 -2.684 40
3.554 -1.765 -2.702 40
3.547 -1.766 -2.714 40
3.533 -1.762 -2.721 40
3.536 -1.769 -2.741 40
3.532 -1.771 -2.755 40
3.52 -1.767 -2.755 40
3.511 -1.767 -2.766 40
3.506 -1.769 -2.779 40
3.508 -1.775 -2.8 40
3.501 -1.776 -2.812 40
3.476 -1.767 -2.81 40
3.475 -1.771 -2.827 40
3.477 -1.775 -2.838 40
3.474 -1.778 -2.854 40
3.462 -1.776 -2.862 40
3.455 -1.777 -2.874 40
3.44 -1.774 -2.88 40
3.43 -1.773 -2.89 40
3.435 -1.781 -2.913 40
3.417 -1.776 -2.916 40
3.419 -1.78 -2.927 40
3.405 -1.777 -2.933 40
3.405 -1.783 -2.952 40
3.378 -1.773 -2.948 40
3.388 -1.783 -2.975 40
3.374 -1.781 -2.982 40
3.366 -1.779 -2.984 40
3.371 -1.787 -3.008 40
3.348 -1.779 -3.006 40
3.355 -1.789 -3.031 40
3.347 -1.79 -3.043 40
3.333 -1.787 -3.05 40
3.326 -1.789 -3.063 40
3.317 -1.789 -3.073 40
3.313 -1.79 -3.08 40
3.308 -1.792 -3.094 40
3.29 -1.787 -3.097 40
3.289 -1.793 -3.116 40
3.28 -1.793 -3.126 40
3.274 -1.795 -3.14 40
3.253 -1.789 -3.14 40
3.262 -1.797 -3.158 40
3.257 -1.8 -3.173 40
3.247 -1.8 -3.184 40
3.229 -1.795 -3.186 40
3.23 -1.801 -3.207 40
3.217 -1.8 -3.214 40
3.208 -1.8 -3.225 40
3.204 -1.801 -3.232 40
3.184 -1.795 -3.231 40
3.19 -1.805 -3.258 40
3.174 -1.801 -3.262 40
3.174 -1.807 -3.282 40
3.163 -1.807 -3.292 40
3.163 -1.811 -3.303 40
3.15 -1.809 -3.31 40
3.135 -1.806 -3.314 40
3.135 -1.812 -3.335 40
3.118 -1.808 -3.338 40
3.109 -1.809 -3.349 40
3.101 -1.811 -3.362 40
3.103 -1.815 -3.375 40
3.087 -1.812 -3.379 40
3.08 -1.814 -3.393 40
3.068 -1.814 -3.401 40
3.057 -1.813 -3.409 40
3.057 -1.82 -3.431 40
3.035 -1.813 -3.428 40
3.027 -1.811 -3.43 40
3.032 -1.821 -3.458 40
3.017 -1.818 -3.462 40
3.009 -1.821 -3.475 40
3.001 -1.822 -3.488 40
2.99 -1.822 -3.497 40
2.976 -1.821 -3.504 40
2.964 -1.82 -3.512 40
2.968 -1.826 -3.527 40
2.951 -1.822 -3.53 40
2.95 -1.828 -3.55 40
2.929 -1.822 -3.548 40
2.92 -1.824 -3.56 40
2.918 -1.83 -3.581 40
2.906 -1.829 -3.588 40
2.903 -1.831 -3.596 40
2.896 -1.834 -3.611 40
2.886 -1.835 -3.621 40
2.869 -1.831 -3.623 40
2.859 -1.832 -3.635 40
2.858 -1.839 -3.657 40
2.832 -1.829 -3.647 40
2.839 -1.838 -3.667 40
2.833 -1.842 -3.684 40
2.817 -1.839 -3.687 40
2.803 -1.837 -3.693 40
2.792 -1.838 -3.703 40
2.786 -1.842 -3.719 40
2.769 -1.838 -3.72 40
2.769 -1.842 -3.732 40
2.761 -1.845 -3.747 40
2.75 -1.845 -3.755 40
2.747 -1.851 -3.776 40
2.725 -1.844 -3.771 40
2.721 -1.849 -3.79 40
2.708 -1.849 -3.797 40
2.707 -1.853 -3.809 40
2.685 -1.846 -3.804 40
2.682 -1.852 -3.824 40
2.672 -1.853 -3.836 40
2.653 -1.848 -3.833 40
2.651 -1.856 -3.857 40
2.639 -1.856 -3.865 40
2.632 -1.855 -3.868 40
2.622 -1.856 -3.879 40
2.61 -1.856 -3.887 40
2.603 -1.86 -3.903 40
2.589 -1.86 -3.91 40
2.577 -1.86 -3.918 40
2.567 -1.861 -3.929 40
2.567 -1.866 -3.942 40
2.551 -1.863 -3.946 40
2.543 -1.867 -3.96 40
2.53 -1.867 -3.968 40
2.517 -1.866 -3.974 40
2.5 -1.863 -3.976 40
2.497 -1.87 -3.998 40
2.488 -1.867 -3.997 40
2.478 -1.87 -4.009 40
2.466 -1.87 -4.019 40
2.457 -1.873 -4.031 40
2.444 -1.873 -4.039 40
2.431 -1.873 -4.047 40
2.42 -1.874 -4.057 40
2.418 -1.877 -4.067 40
2.411 -1.882 -4.084 40
2.392 -1.877 -4.083 40
2.38 -1.878 -4.092 40
2.371 -1.881 -4.105 40
2.356 -1.88 -4.11 40
2.348 -1.884 -4.125 40
2.342 -1.884 -4.13 40
2.329 -1.884 -4.136 40
2.316 -1.884 -4.145 40
2.308 -1.888 -4.16 40
2.295 -1.888 -4.167 40
2.281 -1.887 -4.173 40
2.271 -1.891 -4.187 40
2.256 -1.889 -4.191 40
2.247 -1.887 -4.189 40
2.241 -1.893 -4.209 40
2.227 -1.892 -4.215 40
2.211 -1.89 -4.217 40
2.203 -1.894 -4.233 40
2.186 -1.891 -4.234 40
2.182 -1.894 -4.242 40
2.171 -1.896 -4.254 40
2.158 -1.896 -4.261 40
2.149 -1.9 -4.276 40
2.132 -1.897 -4.276 40
2.114 -1.892 -4.273 40
2.107 -1.899 -4.294 40
2.101 -1.905 -4.314 40
2.087 -1.899 -4.304 40
2.079 -1.904 -4.32 40
2.059 -1.898 -4.315 40
2.043 -1.895 -4.315 40
2.039 -1.905 -4.343 40
2.026 -1.906 -4.351 40
2.01 -1.903 -4.351 40
2.005 -1.905 -4.359 40
1.989 -1.903 -4.36 40
1.975 -1.903 -4.366 40
1.966 -1.908 -4.383 40
1.961 -1.916 -4.407 40
1.937 -1.906 -4.392 40
1.929 -1.912 -4.41 40
1.919 -1.909 -4.407 40
1.903 -1.907 -4.408 40
1.891 -1.908 -4.418 40
1.875 -1.906 -4.419 40
1.868 -1.914 -4.441 40
1.851 -1.91 -4.439 40
1.843 -1.917 -4.46 40
1.83 -1.911 -4.449 40
1.819 -1.914 -4.462 40
1.805 -1.914 -4.467 40
1.794 -1.917 -4.48 40
1.779 -1.915 -4.482 40
1.769 -1.92 -4.498 40
1.748 -1.912 -4.486 40
1.743 -1.915 -4.496 40
1.732 -1.919 -4.508 40
1.718 -1.919 -4.514 40
1.701 -1.916 -4.514 40
1.694 -1.924 -4.536 40
1.673 -1.916 -4.524 40
1.662 -1.92 -4.538 40
1.657 -1.922 -4.546 40
1.641 -1.921 -4.548 40
1.632 -1.927 -4.567 40
1.612 -1.92 -4.556 40
1.6 -1.923 -4.568 40
1.584 -1.921 -4.568 40
1.572 -1.923 -4.578 40
1.567 -1.926 -4.588 40
1.552 -1.926 -4.593 40
1.536 -1.923 -4.59 40
1.525 -1.928 -4.606 40
1.512 -1.931 -4.617 40
1.498 -1.931 -4.622 40
1.478 -1.924 -4.611 40
1.475 -1.929 -4.626 40
1.459 -1.927 -4.625 40
1.447 -1.931 -4.638 40
1.434 -1.933 -4.648 40
1.418 -1.932 -4.649 40
1.402 -1.929 -4.648 40
1.388 -1.93 -4.654 40
1.383 -1.934 -4.665 40
1.368 -1.933 -4.668 40
1.351 -1.929 -4.663 40
1.34 -1.936 -4.682 40
1.325 -1.935 -4.684 40
1.311 -1.936 -4.69 40
1.295 -1.933 -4.689 40
1.283 -1.937 -4.702 40
1.274 -1.935 -4.699 40
1.261 -1.939 -4.711 40
1.246 -1.939 -4.715 40
1.227 -1.931 -4.701 40
1.216 -1.938 -4.721 40
1.204 -1.942 -4.734 40
1.193 -1.948 -4.752 40
1.177 -1.935 -4.724 40
1.168 -1.943 -4.747 40
1.152 -1.942 -4.747 40
1.132 -1.933 -4.731 40
1.122 -1.942 -4.754 40
1.104 -1.937 -4.747 40
1.092 -1.942 -4.761 40
1.086 -1.944 -4.768 40
1.069 -1.941 -4.764 40
1.055 -1.943 -4.771 40
1.042 -1.946 -4.782 40
1.025 -1.942 -4.776 40
1.007 -1.937 -4.768 40
0.998 -1.948 -4.797 40
0.987 -1.943 -4.786 40
0.973 -1.944 -4.792 40
0.96 -1.949 -4.806 40
0.945 -1.949 -4.809 40
0.925 -1.938 -4.787 40
0.915 -1.949 -4.815 40
0.9 -1.95 -4.82 40
0.889 -1.943 -4.805 40
0.878 -1.952 -4.829 40
0.862 -1.95 -4.827 40
0.847 -1.95 -4.829 40
0.832 -1.95 -4.832 40
0.815 -1.946 -4.826 40
0.803 -1.954 -4.848 40
0.795 -1.951 -4.842 40
0.78 -1.953 -4.848 40
0.764 -1.952 -4.849 40
0.75 -1.954 -4.855 40
0.737 -1.96 -4.872 40
0.718 -1.95 -4.85 40
0.705 -1.955 -4.865 40
0.698 -1.957 -4.872 40
0.68 -1.951 -4.859 40
0.666 -1.954 -4.869 40
0.652 -1.958 -4.88 40
0.636 -1.957 -4.88 40
0.621 -1.956 -4.879 40
0.603 -1.948 -4.862 40
0.599 -1.96 -4.891 40
0.583 -1.958 -4.889 40
0.568 -1.961 -4.898 40
0.552 -1.958 -4.892 40
0.537 -1.957 -4.892 40
0.521 -1.957 -4.894 40
0.506 -1.959 -4.899 40
0.493 -1.966 -4.917 40
0.484 -1.961 -4.905 40
0.469 -1.964 -4.914 40
0.453 -1.961 -4.908 40
0.436 -1.957 -4.9 40
0.422 -1.961 -4.911 40
0.407 -1.963 -4.918 40
0.392 -1.965 -4.924 40
0.384 -1.964 -4.921 40
0.367 -1.958 -4.91 40
0.353 -1.966 -4.929 40
0.338 -1.964 -4.925 40
0.323 -1.967 -4.933 40
0.307 -1.966 -4.932 40
0.299 -1.967 -4.935 40
0.283 -1.964 -4.93 40
0.269 -1.971 -4.946 40
0.253 -1.967 -4.939 40
0.237 -1.961 -4.925 40
0.222 -1.972 -4.952 40
0.207 -1.969 -4.945 40
0.191 -1.967 -4.94 40
0.183 -1.971 -4.949 40
0.168 -1.972 -4.954 40
0.152 -1.966 -4.939 40
0.136 -1.966 -4.94 40
0.121 -1.963 -4.933 40
0.106 -1.973 -4.957 40
0.09 -1.974 -4.959 40
0.082 -1.973 -4.958 40
0.067 -1.974 -4.96 40
0.051 -1.97 -4.951 40
0.036 -1.975 -4.964 40
0.02 -1.974 -4.962 40
0.005 -1.974 -4.96 40
-0.011 -1.978 -4.971 40
-0.019 -1.975 -4.964 40
-0.034 -1.975 -4.964 40
-0.05 -1.974 -4.96 40
-0.065 -1.969 -4.949 40
-0.081 -1.98 -4.974 40
-0.097 -1.977 -4.967 40
-0.112 -1.968 -4.946 40
-0.12 -1.981 -4.975 40
-0.136 -1.98 -4.973 40
-0.151 -1.973 -4.956 40
-0.167 -1.982 -4.978 40
-0.183 -1.98 -4.972 40
-0.198 -1.975 -4.96 40
-0.214 -1.981 -4.972 40
-0.222 -1.981 -4.972 40
-0.237 -1.974 -4.956 40
-0.254 -1.984 -4.978 40
-0.269 -1.981 -4.97 40
-0.284 -1.98 -4.967 40
-0.3 -1.981 -4.97 40
-0.316 -1.98 -4.965 40
-0.324 -1.984 -4.974 40
-0.34 -1.984 -4.973 40
-0.355 -1.981 -4.966 40
-0.37 -1.98 -4.961 40
-0.386 -1.983 -4.967 40
-0.401 -1.981 -4.961 40
-0.418 -1.985 -4.969 40
-0.425 -1.981 -4.959 40
-0.441 -1.984 -4.965 40
-0.456 -1.98 -4.954 40
-0.472 -1.985 -4.964 40
-0.487 -1.982 -4.957 40
-0.503 -1.981 -4.953 40
-0.519 -1.986 -4.963 40
-0.526 -1.981 -4.951 40
-0.542 -1.983 -4.953 40
-0.558 -1.985 -4.955 40
-0.572 -1.98 -4.942 40
-0.589 -1.984 -4.949 40
-0.604 -1.984 -4.947 40
-0.619 -1.981 -4.938 40
-0.636 -1.985 -4.945 40
-0.644 -1.985 -4.944 40
-0.659 -1.985 -4.944 40
-0.676 -1.989 -4.951 40
-0.689 -1.981 -4.929 40
-0.707 -1.988 -4.945 40
-0.721 -1.985 -4.934 40
-0.734 -1.976 -4.911 40
-0.746 -1.989 -4.941 40
-0.76 -1.985 -4.93 40
-0.774 -1.981 -4.918 40
-0.793 -1.989 -4.934 40
-0.806 -1.983 -4.917 40
-0.823 -1.988 -4.925 40
-0.836 -1.982 -4.91 40
-0.846 -1.988 -4.921 40
-0.86 -1.984 -4.909 40
-0.876 -1.986 -4.912 40
-0.891 -1.983 -4.902 40
-0.908 -1.988 -4.91 40
-0.924 -1.989 -4.911 40
-0.938 -1.987 -4.903 40
-0.948 -1.992 -4.912 40
-0.959 -1.981 -4.885 40
-0.977 -1.987 -4.895 40
-0.992 -1.985 -4.888 40
-1.007 -1.985 -4.885 40
-1.024 -1.988 -4.889 40
-1.039 -1.988 -4.884 40
-1.045 -1.985 -4.877 40
-1.064 -1.992 -4.888 40
-1.075 -1.983 -4.865 40
-1.092 -1.988 -4.872 40
-1.107 -1.987 -4.867 40
-1.126 -1.993 -4.878 40
-1.136 -1.984 -4.853 40
-1.147 -1.989 -4.864 40
-1.161 -1.988 -4.858 40
-1.177 -1.988 -4.855 40
-1.192 -1.988 -4.851 40
-1.208 -1.99 -4.851 40
-1.219 -1.983 -4.831 40
-1.237 -1.988 -4.838 40
-1.252 -1.987 -4.832 40
-1.265 -1.995 -4.85 40
-1.279 -1.995 -4.844 40
-1.288 -1.985 -4.817 40
-1.305 -1.987 -4.818 40
-1.32 -1.986 -4.812 40
-1.335 -1.986 -4.808 40
-1.342 -1.986 -4.806 40
-1.358 -1.988 -4.805 40
-1.375 -1.991 -4.808 40
-1.388 -1.986 -4.793 40
-1.404 -1.988 -4.792 40
-1.418 -1.986 -4.784 40
-1.436 -1.991 -4.79 40
-1.449 -1.988 -4.78 40
-1.457 -1.988 -4.778 40
-1.471 -1.987 -4.77 40
-1.486 -1.987 -4.765 40
-1.501 -1.987 -4.761 40
-1.517 -1.988 -4.759 40
-1.531 -1.987 -4.751 40
-1.547 -1.989 -4.752 40
-1.552 -1.986 -4.742 40
-1.568 -1.988 -4.741 40
-1.584 -1.988 -4.738 40
-1.599 -1.989 -4.734 40
-1.61 -1.984 -4.717 40
-1.627 -1.986 -4.717 40
-1.641 -1.986 -4.712 40
-1.649 -1.986 -4.709 40
-1.667 -1.99 -4.713 40
-1.678 -1.986 -4.699 40
-1.696 -1.99 -4.702 40
-1.707 -1.985 -4.685 40
-1.724 -1.988 -4.688 40
-1.737 -1.986 -4.678 40
-1.745 -1.987 -4.677 40
-1.762 -1.989 -4.676 40
-1.776 -1.988 -4.669 40
-1.787 -1.984 -4.653 40
-1.805 -1.988 -4.656 40
-1.817 -1.985 -4.643 40
-1.834 -1.988 -4.645 40
-1.843 -1.99 -4.647 40
-1.854 -1.986 -4.632 40
-1.862 -1.978 -4.609 40
-1.883 -1.985 -4.619 40
-1.895 -1.983 -4.608 40
-1.914 -1.988 -4.614 40
-1.928 -1.987 -4.604 40
-1.936 -1.981 -4.585 40
-1.947 -1.985 -4.59 40
-1.959 -1.982 -4.579 40
-1.975 -1.984 -4.576 40
-1.988 -1.982 -4.567 40
-2.008 -1.988 -4.572 40
-2.019 -1.985 -4.559 40
-2.03 -1.981 -4.546 40
-2.041 -1.985 -4.551 40
-2.058 -1.988 -4.551 40
-2.066 -1.981 -4.53 40
-2.082 -1.984 -4.528 40
-2.097 -1.984 -4.522 40
-2.107 -1.98 -4.507 40
-2.126 -1.985 -4.51 40
-2.129 -1.981 -4.498 40
-2.145 -1.982 -4.495 40
-2.163 -1.986 -4.497 40
-2.174 -1.983 -4.483 40
-2.189 -1.984 -4.478 40
-2.203 -1.984 -4.471 40
-2.217 -1.984 -4.464 40
-2.219 -1.979 -4.451 40
-2.239 -1.985 -4.457 40
-2.252 -1.984 -4.447 40
-2.262 -1.981 -4.433 40
-2.28 -1.984 -4.432 40
-2.291 -1.981 -4.42 40
-2.301 -1.978 -4.407 40
-2.317 -1.986 -4.419 40
-2.326 -1.981 -4.402 40
-2.336 -1.978 -4.388 40
-2.352 -1.981 -4.386 40
-2.368 -1.982 -4.382 40
-2.381 -1.981 -4.373 40
-2.395 -1.982 -4.367 40
-2.403 -1.977 -4.348 40
-2.412 -1.979 -4.349 40
-2.428 -1.981 -4.345 40
-2.438 -1.978 -4.33 40
-2.444 -1.971 -4.31 40
-2.468 -1.98 -4.32 40
-2.478 -1.977 -4.306 40
-2.482 -1.974 -4.297 40
-2.498 -1.977 -4.294 40
-2.512 -1.978 -4.288 40
-2.525 -1.977 -4.278 40
-2.538 -1.977 -4.27 40
-2.549 -1.974 -4.257 40
-2.559 -1.972 -4.245 40
-2.572 -1.977 -4.25 40
-2.581 -1.974 -4.236 40
-2.595 -1.974 -4.229 40
-2.609 -1.974 -4.221 40
-2.617 -1.971 -4.205 40
-2.638 -1.977 -4.209 40
-2.645 -1.972 -4.192 40
-2.651 -1.971 -4.186 40
-2.661 -1.969 -4.173 40
-2.681 -1.974 -4.175 40
-2.686 -1.968 -4.154 40
-2.699 -1.968 -4.146 40
-2.717 -1.972 -4.145 40
-2.726 -1.969 -4.13 40
-2.741 -1.971 -4.125 40
-2.75 -1.972 -4.124 40
-2.761 -1.971 -4.112 40
-2.77 -1.967 -4.097 40
-3.362 -1.931 -3.508 40
-3.39 -1.941 -3.515 40
-3.383 -1.93 -3.485 40
-3.389 -1.927 -3.469 40
-3.394 -1.927 -3.464 40
-3.405 -1.927 -3.453 40
-3.416 -1.927 -3.443 40
-3.43 -1.929 -3.436 40
-3.441 -1.929 -3.425 40
-3.444 -1.925 -3.406 40
-3.451 -1.922 -3.392 40
-3.463 -1.926 -3.393 40
-3.467 -1.922 -3.375 40
-3.484 -1.926 -3.371 40
-3.488 -1.922 -3.354 40
-3.493 -1.919 -3.337 40
-3.505 -1.92 -3.328 40
-3.523 -1.925 -3.324 40
-3.53 -1.926 -3.32 40
-3.534 -1.922 -3.303 40
-3.535 -1.916 -3.283 40
-3.545 -1.916 -3.272 40
-3.547 -1.912 -3.253 40
-3.559 -1.912 -3.243 40
-3.561 -1.908 -3.224 40
-3.564 -1.907 -3.218 40
-3.6 -1.915 -3.209 40
-3.604 -1.912 -3.192 40
-3.613 -1.912 -3.18 40
-3.634 -1.918 -3.178 40
-3.633 -1.912 -3.157 40
-3.62 -1.901 -3.136 40
-3.642 -1.908 -3.135 40
-3.66 -1.913 -3.131 40
-3.66 -1.908 -3.111 40
-3.669 -1.907 -3.098 40
-3.674 -1.905 -3.083 40
-3.682 -1.904 -3.07 40
-3.686 -1.903 -3.063 40
-3.691 -1.901 -3.048 40
-3.698 -1.899 -3.034 40
-3.702 -1.896 -3.018 40
-3.702 -1.891 -2.999 40
-3.709 -1.89 -2.985 40
-3.727 -1.894 -2.981 40
-3.732 -1.894 -2.975 40
-3.732 -1.89 -2.956 40
-3.746 -1.892 -2.948 40
-3.749 -1.889 -2.931 40
-3.759 -1.889 -2.92 40
-3.765 -1.887 -2.906 40
-3.77 -1.885 -2.89 40
-3.774 -1.885 -2.884 40
-3.786 -1.887 -2.875 40
-3.789 -1.884 -2.858 40
-3.797 -1.883 -2.845 40
-3.812 -1.886 -2.838 40
-3.82 -1.886 -2.826 40
-3.828 -1.885 -2.813 40
-3.822 -1.88 -2.799 40
-3.838 -1.884 -2.793 40
-3.833 -1.877 -2.771 40
-3.842 -1.877 -2.759 40
-3.849 -1.876 -2.745 40
-3.865 -1.88 -2.739 40
-3.886 -1.886 -2.735 40
-3.865 -1.873 -2.711 40
-3.875 -1.873 -2.7 40
-3.882 -1.873 -2.687 40
-3.902 -1.879 -2.683 40
-3.909 -1.878 -2.669 40
-3.908 -1.873 -2.651 40
-3.927 -1.879 -2.646 40
-3.925 -1.876 -2.636 40
-3.931 -1.874 -2.621 40
-3.933 -1.871 -2.605 40
-3.953 -1.877 -2.6 40
-3.946 -1.87 -2.578 40
-3.962 -1.873 -2.571 40
-3.964 -1.87 -2.554 40
-3.978 -1.873 -2.546 40
-3.98 -1.873 -2.538 40
-3.976 -1.867 -2.518 40
-3.98 -1.865 -2.503 40
-3.999 -1.87 -2.498 40
-3.998 -1.866 -2.479 40
-4.01 -1.868 -2.47 40
-4.005 -1.862 -2.449 40
-3.998 -1.856 -2.436 40
-4.015 -1.861 -2.429 40
-4.024 -1.862 -2.418 40
-4.037 -1.864 -2.408 40
-4.041 -1.863 -2.393 40
-4.049 -1.863 -2.381 40
-4.05 -1.86 -2.364 40
-4.05 -1.858 -2.356 40
-4.055 -1.856 -2.341 40
-4.073 -1.862 -2.335 40
-4.064 -1.854 -2.313 40
-4.078 -1.857 -2.304 40
-4.077 -1.853 -2.287 40
-4.08 -1.851 -2.271 40
-4.088 -1.853 -2.267 40
-4.101 -1.856 -2.258 40
-4.092 -1.849 -2.236 40
-4.116 -1.856 -2.232 40
-4.129 -1.86 -2.223 40
3.667 -1.653 2.046 40
3.675 -1.655 2.043 40
3.86 -1.673 1.772 40
3.864 -1.672 1.759 40
3.873 -1.675 1.756 40
3.877 -1.675 1.743 40
3.887 -1.677 1.733 40
3.893 -1.677 1.721 40
3.89 -1.673 1.705 40
3.905 -1.678 1.697 40
3.926 -1.685 1.692 40
3.91 -1.676 1.678 40
3.92 -1.679 1.667 40
3.937 -1.684 1.66 40
3.936 -1.681 1.645 40
3.961 -1.69 1.641 40
3.98 -1.696 1.634 40
3.985 -1.696 1.622 40
4.025 -1.713 1.631 40
4.016 -1.707 1.613 40
4.028 -1.71 1.603 40
4.047 -1.717 1.596 40
4.038 -1.71 1.578 40
4.05 -1.713 1.568 40
4.046 -1.71 1.559 40
4.045 -1.708 1.544 40
4.064 -1.714 1.536 40
4.065 -1.713 1.522 40
4.094 -1.724 1.519 40
4.073 -1.712 1.496 40
4.083 -1.714 1.485 40
4.079 -1.71 1.469 40
4.078 -1.709 1.462 40
4.082 -1.709 1.449 40
4.092 -1.711 1.438 40
4.083 -1.705 1.42 40
4.098 -1.71 1.411 40
4.093 -1.706 1.395 40
4.103 -1.708 1.384 40
4.114 -1.712 1.38 40
4.115 -1.71 1.366 40
4.1 -1.702 1.347 40
4.121 -1.71 1.34 40
4.133 -1.713 1.329 40
4.124 -1.707 1.312 40
4.133 -1.71 1.308 40
4.129 -1.706 1.292 40
4.129 -1.705 1.278 40
4.144 -1.71 1.268 40
4.144 -1.708 1.254 40
4.152 -1.71 1.242 40
4.157 -1.71 1.23 40
4.161 -1.711 1.224 40
4.153 -1.706 1.207 40
4.16 -1.707 1.195 40
4.176 -1.713 1.186 40
4.053 -1.722 -1.327 40
4.064 -1.729 -1.345 40
4.011 -1.707 -1.342 40
4.021 -1.713 -1.359 40
4.008 -1.708 -1.362 40
4.007 -1.71 -1.375 40
4.001 -1.709 -1.387 40
3.992 -1.707 -1.398 40
3.991 -1.708 -1.412 40
3.983 -1.707 -1.423 40
3.989 -1.711 -1.439 40
3.98 -1.708 -1.443 40
3.979 -1.71 -1.457 40
3.962 -1.704 -1.465 40
3.973 -1.711 -1.483 40
3.956 -1.706 -1.491 40
3.955 -1.707 -1.505 40
3.947 -1.706 -1.516 40
3.941 -1.704 -1.521 40
3.939 -1.706 -1.535 40
3.948 -1.712 -1.552 40
3.93 -1.706 -1.559 40
3.947 -1.716 -1.581 40
3.927 -1.709 -1.587 40
3.932 -1.714 -1.603 40
3.912 -1.706 -1.602 40
3.921 -1.712 -1.62 40
3.919 -1.714 -1.634 40
3.9 -1.707 -1.641 40
3.915 -1.717 -1.662 40
3.893 -1.709 -1.667 40
3.905 -1.717 -1.686 40
3.879 -1.706 -1.682 40
3.894 -1.715 -1.703 40
3.865 -1.704 -1.705 40
3.884 -1.716 -1.728 40
3.861 -1.707 -1.732 40
3.875 -1.717 -1.753 40
3.854 -1.708 -1.751 40
3.87 -1.718 -1.773 40
3.846 -1.71 -1.777 40
3.851 -1.714 -1.794 40
3.84 -1.712 -1.803 40
3.841 -1.715 -1.818 40
3.827 -1.711 -1.827 40
3.834 -1.718 -1.845 40
3.815 -1.71 -1.843 40
3.829 -1.719 -1.865 40
3.813 -1.714 -1.872 40
3.799 -1.711 -1.88 40
3.816 -1.722 -1.903 40
3.797 -1.715 -1.908 40
3.788 -1.714 -1.919 40
3.791 -1.717 -1.928 40
3.802 -1.725 -1.948 40
3.768 -1.711 -1.946 40
3.773 -1.717 -1.964 40
3.765 -1.716 -1.975 40
3.751 -1.712 -1.982 40
3.764 -1.722 -2.004 40
3.762 -1.722 -2.011 40
3.746 -1.718 -2.018 40
3.74 -1.718 -2.029 40
3.747 -1.724 -2.048 40
3.726 -1.717 -2.052 40
3.751 -1.733 -2.082 40
3.722 -1.722 -2.081 40
3.717 -1.721 -2.086 40
3.72 -1.726 -2.103 40
3.731 -1.734 -2.125 40
3.739 -1.741 -2.145 40
3.737 -1.744 -2.159 40
3.732 -1.745 -2.172 40
3.741 -1.751 -2.185 40
3.672 -1.75 -2.295 40
3.671 -1.753 -2.31 40
3.678 -1.76 -2.331 40
3.669 -1.76 -2.341 40
3.649 -1.751 -2.336 40
3.635 -1.748 -2.344 40
3.64 -1.754 -2.363 40
3.623 -1.749 -2.368 40
3.604 -1.743 -2.372 40
3.593 -1.741 -2.381 40
3.589 -1.743 -2.394 40
3.582 -1.741 -2.398 40
3.579 -1.744 -2.412 40
3.577 -1.747 -2.428 40
3.562 -1.743 -2.434 40
3.553 -1.742 -2.444 40
3.55 -1.745 -2.458 40
3.556 -1.752 -2.479 40
3.546 -1.751 -2.489 40
3.542 -1.751 -2.494 40
3.531 -1.749 -2.503 40
3.528 -1.752 -2.518 40
3.516 -1.749 -2.525 40
3.526 -1.759 -2.549 40
3.497 -1.748 -2.545 40
3.503 -1.753 -2.558 40
3.489 -1.75 -2.565 40
3.487 -1.753 -2.58 40
3.483 -1.756 -2.595 40
3.474 -1.755 -2.604 40
3.464 -1.754 -2.614 40
3.453 -1.753 -2.623 40
3.449 -1.753 -2.628 40
3.446 -1.756 -2.644 40
3.451 -1.763 -2.665 40
3.453 -1.768 -2.683 40
3.461 -1.778 -2.708 40
3.441 -1.772 -2.71 40
3.43 -1.77 -2.718 40
3.413 -1.763 -2.713 40
3.422 -1.772 -2.738 40
3.419 -1.775 -2.753 40
3.403 -1.772 -2.758 40
3.391 -1.77 -2.766 40
3.39 -1.774 -2.783 40
3.382 -1.777 -2.804 40
3.382 -1.782 -2.821 40
3.37 -1.78 -2.829 40
3.35 -1.774 -2.83 40
3.351 -1.779 -2.849 40
3.329 -1.772 -2.849 40
3.325 -1.775 -2.863 40
3.313 -1.771 -2.862 40
3.307 -1.772 -2.875 40
3.314 -1.782 -2.9 40
3.283 -1.769 -2.891 40
3.289 -1.778 -2.915 40
3.28 -1.778 -2.925 40
3.28 -1.783 -2.944 40
3.273 -1.782 -2.947 40
3.254 -1.776 -2.948 40
3.253 -1.781 -2.966 40
3.245 -1.782 -2.977 40
3.233 -1.78 -2.985 40
3.228 -1.783 -2.999 40
3.218 -1.783 -3.009 40
3.225 -1.79 -3.026 40
3.208 -1.785 -3.028 40
3.205 -1.789 -3.044 40
3.192 -1.787 -3.051 40
3.182 -1.787 -3.061 40
3.167 -1.783 -3.066 40
3.166 -1.786 -3.074 40
3.155 -1.785 -3.083 40
3.145 -1.785 -3.093 40
3.144 -1.79 -3.111 40
3.134 -1.79 -3.12 40
3.129 -1.793 -3.136 40
3.117 -1.791 -3.143 40
3.116 -1.794 -3.152 40
3.099 -1.79 -3.155 40
3.096 -1.794 -3.171 40
3.09 -1.796 -3.185 40
3.078 -1.795 -3.193 40
3.075 -1.799 -3.209 40
3.057 -1.794 -3.211 40
3.052 -1.798 -3.226 40
3.048 -1.798 -3.232 40
3.038 -1.798 -3.242 40
3.034 -1.802 -3.258 40
3.024 -1.802 -3.267 40
3.019 -1.806 -3.284 40
2.999 -1.8 -3.282 40
3.001 -1.808 -3.305 40
2.986 -1.802 -3.299 40
2.981 -1.805 -3.314 40
2.984 -1.813 -3.339 40
2.956 -1.802 -3.329 40
2.953 -1.807 -3.346 40
2.951 -1.813 -3.365 40
2.931 -1.806 -3.363 40
2.933 -1.811 -3.376 40
2.929 -1.816 -3.394 40
2.903 -1.806 -3.385 40
2.905 -1.814 -3.409 40
2.898 -1.817 -3.423 40
2.887 -1.817 -3.432 40
2.877 -1.817 -3.441 40
2.883 -1.825 -3.459 40
2.852 -1.811 -3.444 40
2.852 -1.818 -3.466 40
2.846 -1.821 -3.481 40
2.832 -1.82 -3.487 40
2.824 -1.821 -3.499 40
2.816 -1.824 -3.512 40
2.805 -1.82 -3.509 40
2.793 -1.819 -3.516 40
2.794 -1.828 -3.541 40
2.769 -1.818 -3.532 40
2.767 -1.825 -3.553 40
2.762 -1.829 -3.569 40
2.748 -1.823 -3.563 40
2.737 -1.823 -3.571 40
2.737 -1.831 -3.595 40
2.716 -1.824 -3.59 40
2.714 -1.831 -3.612 40
2.7 -1.829 -3.616 40
2.687 -1.828 -3.623 40
2.681 -1.828 -3.627 40
2.679 -1.834 -3.647 40
2.663 -1.831 -3.65 40
2.662 -1.839 -3.673 40
2.651 -1.839 -3.681 40
2.628 -1.831 -3.675 40
2.626 -1.838 -3.696 40
2.61 -1.83 -3.686 40
2.598 -1.83 -3.694 40
2.6 -1.84 -3.721 40
2.582 -1.836 -3.721 40
2.577 -1.84 -3.738 40
2.562 -1.838 -3.741 40
2.56 -1.846 -3.765 40
2.544 -1.842 -3.765 40
2.542 -1.845 -3.775 40
2.527 -1.843 -3.778 40
2.514 -1.842 -3.785 40
2.511 -1.849 -3.807 40
2.498 -1.848 -3.813 40
2.484 -1.847 -3.818 40
2.475 -1.844 -3.817 40
2.47 -1.85 -3.835 40
2.451 -1.844 -3.832 40
2.449 -1.852 -3.856 40
2.435 -1.851 -3.86 40
2.428 -1.855 -3.877 40
2.415 -1.855 -3.883 40
2.4 -1.852 -3.886 40
2.396 -1.854 -3.893 40
2.392 -1.861 -3.915 40
2.368 -1.851 -3.902 40
2.366 -1.859 -3.926 40
2.351 -1.857 -3.929 40
2.345 -1.863 -3.948 40
2.328 -1.859 -3.947 40
2.328 -1.864 -3.962 40
2.311 -1.86 -3.961 40
2.303 -1.864 -3.976 40
2.291 -1.865 -3.985 40
2.273 -1.859 -3.981 40
2.262 -1.861 -3.991 40
2.249 -1.861 -3.998 40
2.247 -1.864 -4.008 40
2.23 -1.861 -4.009 40
2.23 -1.872 -4.039 40
2.209 -1.864 -4.029 40
2.199 -1.867 -4.043 40
2.186 -1.867 -4.048 40
2.186 -1.872 -4.063 40
2.171 -1.87 -4.066 40
2.164 -1.876 -4.085 40
2.149 -1.874 -4.087 40
2.132 -1.87 -4.085 40
2.128 -1.878 -4.11 40
2.106 -1.87 -4.098 40
2.108 -1.878 -4.118 40
2.094 -1.877 -4.123 40
2.09 -1.886 -4.148 40
2.063 -1.871 -4.125 40
2.06 -1.882 -4.153 40
2.041 -1.876 -4.147 40
2.032 -1.88 -4.162 40
2.027 -1.882 -4.169 40
2.015 -1.882 -4.177 40
1.998 -1.878 -4.175 40
1.989 -1.882 -4.189 40
1.976 -1.883 -4.197 40
1.968 -1.888 -4.213 40
1.949 -1.882 -4.208 40
1.938 -1.884 -4.217 40
1.933 -1.886 -4.225 40
1.917 -1.883 -4.225 40
1.912 -1.892 -4.249 40
1.89 -1.883 -4.237 40
1.886 -1.893 -4.263 40
1.867 -1.887 -4.257 40
1.851 -1.884 -4.256 40
1.85 -1.89 -4.272 40
1.835 -1.889 -4.275 40
1.822 -1.889 -4.28 40
1.811 -1.892 -4.293 40
1.8 -1.895 -4.305 40
1.784 -1.892 -4.304 40
1.771 -1.892 -4.31 40
1.771 -1.9 -4.33 40
1.752 -1.893 -4.321 40
1.739 -1.894 -4.329 40
1.724 -1.893 -4.331 40
1.713 -1.896 -4.343 40
1.699 -1.896 -4.348 40
1.684 -1.894 -4.35 40
1.681 -1.898 -4.361 40
1.666 -1.897 -4.363 40
1.655 -1.901 -4.377 40
1.646 -1.906 -4.394 40
1.628 -1.901 -4.389 40
1.618 -1.905 -4.403 40
1.604 -1.906 -4.41 40
1.596 -1.904 -4.407 40
1.583 -1.906 -4.417 40
1.567 -1.902 -4.413 40
1.559 -1.91 -4.436 40
1.539 -1.902 -4.423 40
1.531 -1.911 -4.447 40
1.51 -1.901 -4.431 40
1.506 -1.905 -4.442 40
1.492 -1.905 -4.447 40
1.48 -1.908 -4.457 40
1.468 -1.911 -4.468 40
1.452 -1.908 -4.466 40
1.438 -1.908 -4.47 40
1.425 -1.909 -4.478 40
1.419 -1.91 -4.482 40
1.405 -1.911 -4.489 40
1.392 -1.912 -4.497 40
1.377 -1.912 -4.499 40
1.365 -1.915 -4.51 40
1.35 -1.912 -4.509 40
1.336 -1.914 -4.517 40
1.331 -1.917 -4.526 40
1.319 -1.92 -4.536 40
1.3 -1.913 -4.526 40
1.288 -1.916 -4.537 40
1.276 -1.92 -4.548 40
1.26 -1.917 -4.547 40
1.247 -1.919 -4.554 40
1.24 -1.919 -4.556 40
1.227 -1.921 -4.565 40
1.211 -1.92 -4.566 40
1.199 -1.923 -4.577 40
1.185 -1.924 -4.582 40
1.168 -1.919 -4.575 40
1.157 -1.925 -4.593 40
1.147 -1.92 -4.584 40
1.134 -1.922 -4.591 40
1.122 -1.927 -4.605 40
1.105 -1.923 -4.6 40
1.09 -1.922 -4.602 40
1.08 -1.929 -4.621 40
1.062 -1.924 -4.612 40
1.051 -1.931 -4.631 40
1.046 -1.934 -4.64 40
1.029 -1.93 -4.635 40
1.016 -1.934 -4.647 40
1.003 -1.936 -4.655 40
0.985 -1.929 -4.642 40
0.971 -1.931 -4.649 40
0.967 -1.938 -4.667 40
0.948 -1.928 -4.648 40
0.934 -1.929 -4.653 40
0.923 -1.939 -4.677 40
0.908 -1.937 -4.677 40
0.893 -1.936 -4.678 40
0.88 -1.94 -4.69 40
0.862 -1.933 -4.676 40
0.855 -1.934 -4.679 40
0.842 -1.937 -4.689 40
0.826 -1.933 -4.683 40
0.81 -1.932 -4.683 40
0.799 -1.942 -4.708 40
0.781 -1.933 -4.69 40
0.767 -1.935 -4.698 40
0.762 -1.942 -4.714 40
0.745 -1.935 -4.702 40
0.731 -1.936 -4.706 40
0.718 -1.943 -4.724 40
0.701 -1.935 -4.707 40
0.688 -1.94 -4.722 40
0.674 -1.945 -4.735 40
0.665 -1.939 -4.721 40
0.651 -1.943 -4.732 40
0.637 -1.943 -4.736 40
0.62 -1.937 -4.723 40
0.606 -1.939 -4.729 40
0.592 -1.943 -4.742 40
0.577 -1.943 -4.742 40
0.568 -1.939 -4.734 40
0.555 -1.945 -4.75 40
0.537 -1.934 -4.726 40
0.524 -1.941 -4.744 40
0.511 -1.948 -4.762 40
0.495 -1.943 -4.751 40
0.48 -1.945 -4.758 40
0.473 -1.945 -4.759 40
0.457 -1.94 -4.749 40
0.442 -1.938 -4.745 40
0.429 -1.948 -4.77 40
0.414 -1.947 -4.77 40
0.398 -1.945 -4.766 40
0.384 -1.95 -4.778 40
0.375 -1.94 -4.757 40
0.361 -1.949 -4.778 40
0.347 -1.954 -4.79 40
0.33 -1.943 -4.765 40
0.316 -1.948 -4.779 40
0.301 -1.946 -4.777 40
0.286 -1.945 -4.774 40
0.28 -1.956 -4.8 40
0.264 -1.95 -4.788 40
0.249 -1.949 -4.785 40
0.234 -1.952 -4.793 40
0.219 -1.949 -4.787 40
0.203 -1.945 -4.778 40
0.189 -1.95 -4.79 40
0.181 -1.951 -4.794 40
0.166 -1.952 -4.796 40
0.151 -1.95 -4.793 40
0.136 -1.949 -4.79 40
0.121 -1.952 -4.797 40
0.106 -1.95 -4.792 40
0.091 -1.953 -4.8 40
0.083 -1.95 -4.794 40
0.068 -1.955 -4.806 40
0.053 -1.953 -4.8 40
0.038 -1.953 -4.801 40
0.023 -1.954 -4.804 40
0.008 -1.958 -4.814 40
-0.007 -1.953 -4.801 40
-0.022 -1.952 -4.799 40
-0.03 -1.954 -4.804 40
-0.045 -1.956 -4.808 40
-0.06 -1.959 -4.815 40
-0.075 -1.958 -4.811 40
-0.09 -1.954 -4.802 40
-0.105 -1.952 -4.798 40
-0.12 -1.957 -4.808 40
-0.128 -1.957 -4.808 40
-0.143 -1.958 -4.811 40
-0.158 -1.958 -4.811 40
-0.173 -1.954 -4.799 40
-0.188 -1.957 -4.806 40
-0.204 -1.961 -4.815 40
-0.219 -1.958 -4.807 40
-0.226 -1.954 -4.799 40
-0.242 -1.962 -4.815 40
-0.256 -1.954 -4.796 40
-0.272 -1.958 -4.804 40
-0.287 -1.962 -4.812 40
-0.302 -1.959 -4.806 40
-0.317 -1.956 -4.798 40
-0.325 -1.962 -4.812 40
-0.339 -1.957 -4.798 40
-0.355 -1.961 -4.806 40
-0.37 -1.958 -4.798 40
-0.385 -1.959 -4.8 40
-0.4 -1.96 -4.801 40
-0.416 -1.962 -4.803 40
-0.423 -1.961 -4.8 40
-0.438 -1.959 -4.795 40
-0.455 -1.968 -4.814 40
-0.468 -1.958 -4.789 40
-0.483 -1.96 -4.793 40
-0.499 -1.962 -4.795 40
-0.513 -1.959 -4.788 40
-0.52 -1.958 -4.784 40
-0.537 -1.963 -4.795 40
-0.552 -1.965 -4.797 40
-0.566 -1.959 -4.782 40
-0.582 -1.963 -4.789 40
-0.597 -1.964 -4.789 40
-0.613 -1.966 -4.793 40
-0.62 -1.964 -4.786 40
-0.633 -1.958 -4.77 40
-0.648 -1.958 -4.77 40
-0.666 -1.968 -4.79 40
-0.678 -1.958 -4.764 40
-0.695 -1.966 -4.78 40
-0.712 -1.971 -4.79 40
-0.716 -1.96 -4.764 40
-0.733 -1.965 -4.772 40
-0.748 -1.966 -4.772 40
-0.763 -1.965 -4.768 40
-0.777 -1.964 -4.763 40
-0.794 -1.969 -4.774 40
-0.804 -1.955 -4.739 40
-0.821 -1.962 -4.75 40
-0.83 -1.966 -4.758 40
-0.843 -1.961 -4.745 40
-0.859 -1.963 -4.748 40
-0.876 -1.968 -4.756 40
-0.888 -1.961 -4.737 40
-0.903 -1.961 -4.734 40
-0.921 -1.968 -4.747 40
-0.926 -1.964 -4.737 40
-0.943 -1.968 -4.743 40
-0.957 -1.965 -4.733 40
-0.97 -1.961 -4.721 40
-0.985 -1.963 -4.723 40
-1.002 -1.967 -4.729 40
-1.007 -1.962 -4.716 40
-1.025 -1.968 -4.726 40
-1.04 -1.968 -4.723 40
-1.052 -1.963 -4.708 40
-1.069 -1.968 -4.716 40
-1.083 -1.966 -4.707 40
-1.097 -1.965 -4.702 40
-1.111 -1.963 -4.695 40
-1.119 -1.965 -4.697 40
-1.134 -1.964 -4.691 40
-1.15 -1.967 -4.695 40
-1.167 -1.971 -4.7 40
-1.176 -1.961 -4.673 40
-1.192 -1.962 -4.673 40
-1.206 -1.962 -4.669 40
-1.214 -1.962 -4.668 40
-1.232 -1.968 -4.676 40
-1.246 -1.968 -4.672 40
-1.258 -1.963 -4.658 40
-1.275 -1.967 -4.663 40
-1.291 -1.969 -4.662 40
-1.305 -1.967 -4.654 40
-1.31 -1.964 -4.645 40
-1.329 -1.971 -4.657 40
-1.342 -1.968 -4.646 40
-1.355 -1.966 -4.636 40
-1.372 -1.969 -4.641 40
-1.384 -1.966 -4.629 40
-1.399 -1.967 -4.627 40
-1.41 -1.972 -4.635 40
-1.421 -1.966 -4.618 40
-1.434 -1.966 -4.612 40
-1.452 -1.97 -4.618 40
-1.462 -1.963 -4.598 40
-1.477 -1.964 -4.595 40
-1.496 -1.97 -4.604 40
-1.495 -1.96 -4.579 40
-1.515 -1.967 -4.59 40
-1.533 -1.972 -4.596 40
-1.54 -1.962 -4.57 40
-1.556 -1.964 -4.569 40
-1.573 -1.968 -4.573 40
-1.583 -1.962 -4.555 40
-1.591 -1.963 -4.555 40
-1.612 -1.972 -4.569 40
-1.618 -1.962 -4.541 40
-1.634 -1.963 -4.539 40
-1.657 -1.974 -4.558 40
-1.661 -1.962 -4.526 40
-1.679 -1.966 -4.529 40
-1.692 -1.973 -4.542 40
-1.698 -1.963 -4.516 40
-1.713 -1.964 -4.512 40
-1.732 -1.969 -4.519 40
-1.743 -1.966 -4.507 40
-1.753 -1.962 -4.491 40
-1.774 -1.969 -4.502 40
-1.777 -1.965 -4.489 40
-1.79 -1.963 -4.48 40
-1.809 -1.969 -4.488 40
-1.814 -1.958 -4.459 40
-1.831 -1.962 -4.46 40
-1.851 -1.969 -4.469 40
-1.854 -1.957 -4.438 40
-1.873 -1.962 -4.442 40
-1.886 -1.969 -4.455 40
-1.891 -1.959 -4.428 40
-1.905 -1.959 -4.423 40
-1.924 -1.965 -4.428 40
-1.933 -1.959 -4.41 40
-1.948 -1.961 -4.408 40
-1.97 -1.969 -4.418 40
-1.968 -1.96 -4.397 40
-1.984 -1.962 -4.394 40
-1.997 -1.961 -4.386 40
-2.008 -1.958 -4.375 40
-2.023 -1.96 -4.372 40
-2.037 -1.96 -4.365 40
-2.051 -1.96 -4.359 40
-2.055 -1.958 -4.351 40
-2.078 -1.967 -4.364 40
-2.083 -1.958 -4.339 40
-2.095 -1.956 -4.328 40
-2.114 -1.962 -4.333 40
-2.119 -1.954 -4.31 40
-2.136 -1.957 -4.31 40
-2.146 -1.96 -4.313 40
-2.148 -1.949 -4.283 40
-2.166 -1.953 -4.285 40
-2.195 -1.968 -4.309 40
-2.193 -1.954 -4.272 40
-2.209 -1.956 -4.27 40
-2.233 -1.966 -4.283 40
-2.227 -1.954 -4.255 40
-2.247 -1.96 -4.261 40
-2.26 -1.959 -4.252 40
-2.268 -1.954 -4.236 40
-2.286 -1.959 -4.238 40
-2.3 -1.959 -4.231 40
-2.302 -1.95 -4.204 40
-2.314 -1.954 -4.21 40
-2.332 -1.958 -4.211 40
-2.338 -1.952 -4.191 40
-2.355 -1.955 -4.19 40
-2.37 -1.957 -4.186 40
-2.383 -1.957 -4.178 40
-2.388 -1.95 -4.156 40
-2.411 -1.958 -4.166 40
-2.405 -1.948 -4.142 40
-2.421 -1.95 -4.139 40
-2.435 -1.951 -4.133 40
-2.439 -1.944 -4.111 40
-2.46 -1.95 -4.116 40
-2.472 -1.95 -4.107 40
-2.476 -1.948 -4.1 40
-2.49 -1.949 -4.094 40
-2.506 -1.951 -4.09 40
-2.507 -1.942 -4.064 40
-2.532 -1.951 -4.075 40
-2.543 -1.95 -4.063 40
-2.548 -1.944 -4.045 40
-2.568 -1.95 -4.047 40
-2.574 -1.95 -4.043 40
-2.578 -1.943 -4.021 40
-2.59 -1.942 -4.012 40
-2.612 -1.95 -4.019 40
-2.615 -1.942 -3.995 40
-2.638 -1.95 -4.002 40
-2.647 -1.947 -3.99 40
-2.645 -1.941 -3.973 40
-2.658 -1.941 -3.965 40
-2.675 -1.945 -3.964 40
-2.687 -1.944 -3.954 40
-2.695 -1.941 -3.94 40
-2.706 -1.94 -3.93 40
-2.712 -1.935 -3.912 40
-2.72 -1.937 -3.911 40
-2.745 -1.946 -3.92 40
-2.741 -1.934 -3.888 40
-2.76 -1.939 -3.89 40
-2.778 -1.943 -3.888 40
-2.78 -1.936 -3.866 40
-2.794 -1.937 -3.859 40
-2.796 -1.935 -3.85 40
-2.809 -1.935 -3.841 40
-2.823 -1.936 -3.835 40
-2.84 -1.94 -3.834 40
-2.839 -1.931 -3.807 40
-2.853 -1.932 -3.801 40
-2.858 -1.927 -3.784 40
-2.871 -1.932 -3.788 40
-2.88 -1.93 -3.774 40
-2.895 -1.932 -3.77 40
-2.897 -1.925 -3.748 40
-2.904 -1.922 -3.733 40
-2.906 -1.916 -3.712 40
-2.911 -1.911 -3.694 40
-3.448 -1.86 -3.023 40
-3.476 -1.87 -3.028 40
-3.494 -1.875 -3.024 40
-3.493 -1.872 -3.014 40
-3.525 -1.885 -3.022 40
-3.519 -1.876 -2.998 40
-3.525 -1.874 -2.984 40
-3.521 -1.867 -2.961 40
-3.533 -1.868 -2.953 40
-3.519 -1.855 -2.923 40
-3.503 -1.844 -2.9 40
-3.568 -1.85 -2.842 40
-3.58 -1.854 -2.843 40
-3.574 -1.846 -2.82 40
-3.585 -1.847 -2.81 40
-3.583 -1.841 -2.791 40
-3.591 -1.84 -2.778 40
-3.582 -1.831 -2.754 40
-3.595 -1.833 -2.746 40
-3.593 -1.83 -2.736 40
-3.616 -1.833 -2.717 40
-3.634 -1.838 -2.713 40
-3.658 -1.847 -2.713 40
-3.679 -1.853 -2.71 40
-3.683 -1.851 -2.695 40
-3.69 -1.852 -2.692 40
-3.692 -1.849 -2.676 40
-3.698 -1.848 -2.662 40
-3.711 -1.85 -2.654 40
-3.733 -1.857 -2.652 40
-3.72 -1.846 -2.625 40
-3.736 -1.85 -2.619 40
-3.737 -1.848 -2.611 40
-3.74 -1.846 -2.596 40
-3.756 -1.85 -2.589 40
-3.753 -1.844 -2.57 40
-3.769 -1.848 -2.564 40
-3.768 -1.844 -2.546 40
-3.787 -1.849 -2.541 40
-3.795 -1.851 -2.538 40
-3.791 -1.845 -2.518 40
-3.787 -1.839 -2.498 40
-3.807 -1.845 -2.494 40
-3.81 -1.843 -2.479 40
-3.816 -1.842 -2.466 40
-3.825 -1.843 -2.455 40
-3.821 -1.836 -2.435 40
-3.834 -1.841 -2.435 40
-3.832 -1.836 -2.417 40
-3.849 -1.841 -2.411 40
-3.844 -1.835 -2.391 40
-3.856 -1.837 -2.382 40
-3.85 -1.83 -2.361 40
-3.866 -1.835 -2.355 40
-3.867 -1.833 -2.347 40
-3.879 -1.836 -2.338 40
-3.88 -1.832 -2.322 40
-3.898 -1.838 -2.316 40
-3.883 -1.827 -2.291 40
-3.905 -1.834 -2.287 40
-3.901 -1.829 -2.268 40
-3.909 -1.831 -2.265 40
-3.912 -1.829 -2.25 40
-3.915 -1.827 -2.236 40
-3.922 -1.827 -2.223 40
-3.936 -1.83 -2.215 40
-3.933 -1.825 -2.197 40
-3.95 -1.83 -2.19 40
-3.934 -1.821 -2.173 40
-3.945 -1.823 -2.163 40
-3.954 -1.824 -2.152 40
-3.978 -1.832 -2.149 40
-3.966 -1.823 -2.126 40
-3.969 -1.821 -2.112 40
-3.969 -1.818 -2.096 40
-3.985 -1.825 -2.096 40
-3.982 -1.82 -2.079 40
-3.971 -1.811 -2.057 40
-3.985 -1.815 -2.049 40
-3.97 -1.805 -2.026 40
-3.955 -1.794 -2.002 40
-3.993 -1.81 -2.005 40
-3.98 -1.802 -1.991 40
-3.984 -1.801 -1.978 40
-3.995 -1.803 -1.968 40
-3.995 -1.8 -1.952 40
3.902 -1.701 1.599 40
3.907 -1.701 1.586 40
3.898 -1.695 1.569 40
3.905 -1.695 1.557 40
3.916 -1.699 1.554 40
3.922 -1.7 1.543 40
3.934 -1.703 1.533 40
3.934 -1.701 1.519 40
3.939 -1.701 1.506 40
3.947 -1.703 1.495 40
3.952 -1.704 1.49 40
3.954 -1.703 1.476 40
3.953 -1.7 1.462 40
3.966 -1.704 1.453 40
3.962 -1.7 1.437 40
3.949 -1.692 1.419 40
3.966 -1.698 1.411 40
3.97 -1.699 1.405 40
3.971 -1.697 1.391 40
3.977 -1.698 1.379 40
3.976 -1.695 1.365 40
3.979 -1.695 1.352 40
3.983 -1.695 1.34 40
3.999 -1.7 1.331 40
3.993 -1.695 1.315 40
4 -1.698 1.31 40
3.997 -1.695 1.296 40
4 -1.694 1.283 40
4.011 -1.697 1.272 40
4.006 -1.693 1.257 40
4.036 -1.705 1.252 40
4.013 -1.694 1.238 40
4.026 -1.698 1.228 40
4.025 -1.695 1.214 40
4.027 -1.695 1.201 40
4.043 -1.7 1.192 40
4.087 -1.718 1.191 40
3.921 -1.723 -1.319 40
3.918 -1.723 -1.332 40
3.917 -1.725 -1.346 40
3.908 -1.723 -1.356 40
3.904 -1.723 -1.368 40
3.903 -1.723 -1.375 40
3.906 -1.727 -1.39 40
3.895 -1.723 -1.4 40
3.887 -1.722 -1.411 40
3.882 -1.722 -1.423 40
3.888 -1.727 -1.439 40
3.882 -1.726 -1.45 40
3.892 -1.732 -1.461 40
3.875 -1.726 -1.469 40
3.862 -1.722 -1.478 40
3.871 -1.728 -1.495 40
3.856 -1.723 -1.503 40
3.849 -1.723 -1.515 40
3.854 -1.726 -1.523 40
3.846 -1.724 -1.534 40
3.851 -1.729 -1.55 40
3.844 -1.728 -1.562 40
3.836 -1.727 -1.572 40
3.829 -1.726 -1.584 40
3.828 -1.728 -1.597 40
3.818 -1.725 -1.607 40
3.815 -1.725 -1.613 40
3.815 -1.728 -1.627 40
3.818 -1.732 -1.643 40
3.796 -1.723 -1.647 40
3.793 -1.724 -1.66 40
3.786 -1.723 -1.671 40
3.786 -1.726 -1.685 40
3.788 -1.728 -1.693 40
3.783 -1.728 -1.705 40
3.767 -1.723 -1.713 40
3.772 -1.728 -1.729 40
3.763 -1.727 -1.739 40
3.759 -1.728 -1.752 40
3.777 -1.739 -1.774 40
3.754 -1.729 -1.771 40
3.714 -1.712 -1.767 40
3.661 -1.758 -2.093 40
3.628 -1.745 -2.089 40
3.618 -1.743 -2.098 40
3.608 -1.741 -2.108 40
3.603 -1.742 -2.12 40
3.601 -1.745 -2.134 40
3.596 -1.745 -2.146 40
3.588 -1.743 -2.149 40
3.584 -1.745 -2.162 40
3.582 -1.747 -2.176 40
3.572 -1.745 -2.186 40
3.567 -1.746 -2.198 40
3.568 -1.75 -2.214 40
3.558 -1.749 -2.223 40
3.565 -1.756 -2.243 40
3.566 -1.758 -2.252 40
3.552 -1.755 -2.259 40
3.544 -1.754 -2.269 40
3.54 -1.756 -2.282 40
3.553 -1.767 -2.306 40
3.525 -1.756 -2.304 40
3.526 -1.758 -2.313 40
3.517 -1.758 -2.323 40
3.513 -1.759 -2.336 40
3.378 -1.776 -2.591 40
3.37 -1.776 -2.601 40
3.355 -1.772 -2.607 40
3.358 -1.776 -2.617 40
3.351 -1.777 -2.629 40
3.344 -1.778 -2.641 40
3.33 -1.775 -2.647 40
3.322 -1.775 -2.657 40
3.315 -1.775 -2.669 40
3.303 -1.774 -2.677 40
3.301 -1.775 -2.683 40
3.295 -1.776 -2.696 40
3.295 -1.781 -2.713 40
3.277 -1.775 -2.715 40
3.281 -1.783 -2.736 40
3.267 -1.78 -2.742 40
3.264 -1.783 -2.757 40
3.263 -1.785 -2.765 40
3.258 -1.787 -2.778 40
3.247 -1.786 -2.787 40
3.239 -1.786 -2.797 40
3.233 -1.788 -2.81 40
3.218 -1.784 -2.815 40
3.223 -1.79 -2.828 40
3.217 -1.792 -2.841 40
3.196 -1.784 -2.84 40
3.195 -1.789 -2.857 40
3.188 -1.79 -2.869 40
3.175 -1.788 -2.875 40
3.176 -1.794 -2.895 40
3.165 -1.79 -2.894 40
3.157 -1.791 -2.905 40
3.144 -1.788 -2.911 40
3.143 -1.793 -2.928 40
3.136 -1.795 -2.941 40
3.129 -1.796 -2.952 40
3.122 -1.797 -2.964 40
3.106 -1.793 -2.967 40
3.108 -1.797 -2.979 40
3.101 -1.799 -2.991 40
3.09 -1.798 -2.999 40
3.084 -1.8 -3.012 40
3.077 -1.801 -3.024 40
3.058 -1.796 -3.025 40
3.068 -1.808 -3.053 40
3.056 -1.803 -3.05 40
3.043 -1.801 -3.057 40
3.043 -1.807 -3.076 40
3.024 -1.801 -3.077 40
3.022 -1.806 -3.094 40
3.012 -1.806 -3.103 40
3 -1.805 -3.11 40
2.999 -1.807 -3.119 40
2.999 -1.814 -3.139 40
2.978 -1.806 -3.136 40
2.975 -1.81 -3.152 40
2.973 -1.816 -3.171 40
